# 3D point list with one line of data per point:
#   POINT3D_ID, X, Y, Z, R, G, B, ERROR, TRACK[] as (IMAGE_ID, POINT2D_IDX)
# Number of points: 412, mean track length: 3.3871733966745845
3 0.48211089416355191 1.8208211916986088 7.0787571408073866 103 105 103 0.89471883532034691 11 97 37 187 38 163
4 1.278110032461413 2.3095534322587428 6.6645310051272304 193 218 231 1.4880383760354896 11 121 37 262 12 411 15 122
5 -0.36081618695612871 2.479402377879675 6.5579982037843569 156 172 181 0.94740770081244907 11 259 37 270
6 0.27506300803461303 -0.56033908810189548 6.4392377277248816 182 188 193 1.346010805098109 11 210 37 372 36 88
7 0.2824658356643594 -0.45838457012361833 6.3262298069134069 181 186 189 1.242219780573206 11 75 37 374 36 96 38 278
8 1.2302617419898416 -0.066132770110128317 6.1656664351651269 88 81 73 1.0440613512325188 11 240 37 391 36 416 38 295
9 -0.77632964067129984 0.18600922416804988 5.8744284106163764 151 162 166 1.0546805479732055 11 83 37 411 38 301
10 1.839594715034329 0.81121358316587833 7.1641889136011914 69 64 54 1.049564864390595 11 373 37 433 36 419 38 132
11 1.4049485858885351 1.3630429027753814 7.4948393600114489 85 76 61 0.88219748914433671 11 384 37 441 36 424 35 440
12 1.9878910315849807 1.4308850512534237 7.451835794436378 89 85 76 1.1785759310506454 11 249 37 444 36 435 38 142 35 175
13 1.0569940064890613 1.9166204185729643 7.010787323315367 93 95 93 0.83139787067300697 11 253 37 476 36 438 38 320 12 395 39 161
14 2.0053234746438213 2.0326382965556737 6.9426014919814039 76 77 73 1.3571708894001275 11 401 37 490 36 456 38 324 39 153
15 1.2361558987764192 2.1810641587506883 6.7733817199745747 96 105 106 0.27105022381116539 11 265 37 500 38 188
16 -0.41124069895064053 2.4205618473822783 6.6057624893901528 155 169 177 1.7504637810119459 11 108 37 509 12 406
17 0.82767627691098544 2.6468070336230336 6.4018742355327651 102 115 119 0.74619937147844129 11 276 37 522 12 577
18 1.2725015769752832 -0.10202438151003675 6.1478021082848526 130 123 115 0.90334922008877572 11 371 37 605 36 571 38 293
19 1.5115098792117569 2.0256088271324897 6.9239663376685545 138 137 135 0.59368546695322788 11 396 37 656 36 613 38 443
20 1.2527006462214789 2.3365983512544664 6.6475567641765654 108 116 116 1.0209511310468444 11 407 37 662 36 625 38 338 12 566 15 123
21 1.2268544889012922 2.3652895591103875 6.6242216605764863 243 255 255 1.2076942155105157 11 506 37 663 38 453 12 686 39 293
22 1.2274707503246534 2.3654047103478608 6.6247848541895369 243 255 255 1.0860830104887469 11 505 37 664 38 452 36 626 12 685 39 294 15 246
23 1.3188336012065891 -1.5645203104987355 7.425613160681098 216 216 217 1.0578120951978798 11 470 37 710 36 751
24 0.50291852514855329 0.74467448942281655 6.6045256097910672 67 66 60 0.77589944591041071 11 481 37 741 36 691 38 422
25 -0.53330229493911308 1.7148492238772455 7.2356795545291597 52 49 39 1.6081179181015848 11 485 37 753 12 654 14 428
26 1.178675478494513 1.971964652880515 6.9569490825628399 97 102 100 0.40162030467618831 11 389 37 765 36 605 38 441 39 288
27 1.2640662747712845 2.2723598543169747 6.7040759534446872 105 112 111 1.1791847628876275 11 504 37 770 36 717 38 518 12 674
28 0.47317151401067203 2.3350885777113999 6.6212150267513277 104 111 114 1.7510423859090993 11 566 37 771 36 771
29 0.075607179939073788 2.3728090111642777 6.6501249514391283 136 145 150 1.1048939381114378 11 499 37 772 12 669
30 -0.46908338931097671 2.6074207865100658 6.460250168832343 162 184 196 0.58982966651817981 36 716 38 524 39 361
31 1.47601150433443 1.373686929487965 7.5195512822473045 84 78 66 0.67347880795598236 11 558 37 836 36 763
32 -0.28991865180103249 1.6794938416161354 7.2282861686171715 39 41 35 1.1574737702509748 11 611 37 838 12 804 13 659
33 1.0840275427495754 1.7525417759990838 7.1553380810133715 76 78 73 0.85434307455385528 11 561 37 839 36 766 38 559 12 748 39 389 15 386
34 1.3025775763157048 1.4706793818766613 7.3648418695451898 68 66 63 1.248385803145839 11 613 37 877 36 867 12 860 35 809
37 0.33493581053626398 2.0609465291534765 6.922457530261771 70 75 73 1.6398533156761956 11 656 37 919 36 869 38 655 12 864 14 519 15 460
38 1.1760248843365857 2.0427752810055342 6.9096411440886021 97 103 100 1.1494711962996831 11 616 37 920 38 608 12 865 39 466 15 429
39 1.8607738255775743 2.0682554884360798 6.896431916608063 97 100 99 1.1267937260508394 11 623 37 922 36 822 38 607 39 427
40 0.17003393183410992 1.6176496889289307 7.1896429104110764 178 162 148 1.3427516921244311 11 652 37 947 36 865 38 677 12 910
41 1.6428048951002499 1.613298274631459 7.2721950490238418 76 76 76 0.83892483731332634 11 681 37 950 36 892 38 676 39 537
42 0.004794033531719033 -1.243746385015821 7.1247370240593604 173 183 192 0.60591685049571742 11 707 37 976 12 925
43 1.2123047053439366 1.3777989735826401 7.4408863733621207 46 40 29 1.4843423332931414 11 720 37 985 36 932 38 720 12 942 35 898
44 1.4736792983086722 1.5249756888458932 7.3607325494009626 140 109 75 0.74902557978816131 11 716 37 986 36 923 38 712 35 894
45 0.78966635847119304 1.6734343450265943 7.2334280862514282 111 101 90 1.1762924127004848 11 722 37 987 38 713 12 945 14 607
46 -0.74011657857110635 -3.827849213923372 10.908110545709471 161 174 177 0.91464724731431224 37 6 36 7 12 1 14 5 15 5
50 -2.3020707729339622 -2.6437898879914474 10.017551717803761 246 250 249 1.0261820183336254 11 344 36 41 35 18
51 -2.2617292159671925 -2.6880151504715233 10.493336192106263 229 245 241 1.3673635513004847 37 49 36 43 35 23
53 -1.0796846660425703 -2.7631386938601761 11.110041702039195 168 175 178 0.78337281196705233 11 44 37 52 36 50 12 32 13 47
54 -2.2860223420911159 -2.484540111364367 10.587785908540603 131 132 127 0.85570354561772455 11 41 37 58 36 54
55 -1.0623825330356924 -2.623593121845178 11.041849879652235 215 217 222 0.92453563859141064 37 353 36 56 35 52
56 2.0378099418973741 1.4262858983940268 7.455263874691429 94 96 93 1.4337623236114065 11 251 37 152 36 188 38 141
57 2.9695461452959018 1.3338910683570422 7.5078314925902481 243 243 234 1.7151405711079009 36 190 35 179
58 0.97438607824848644 1.7734240075374428 7.1380192084775818 94 98 96 0.63925821455603205 37 182 36 192 38 157 39 150
59 1.1082517304179542 1.7983614955980238 7.1351179423602415 124 129 125 0.28185878446536061 37 189 36 195 38 158
60 0.96368789472859617 1.9312785886606763 7.0114565904458601 134 140 138 0.4222838802432945 37 213 36 201 38 169
61 1.1910330696480411 2.3108509946019686 6.6730017197573259 124 140 148 0.71260008246458728 37 504 36 232 38 337 39 173
62 0.81167417917149409 2.6730336500401237 6.3436972642251037 204 215 223 1.060601456006897 37 525 36 263 38 354
63 1.703206247254978 8.5377870598119117 20.581335506834542 124 102 79 1.0990677990243005 37 316 36 295 12 258
64 1.4382173220026746 -3.5529890711572421 10.991791092175692 244 255 255 0.92081694837619543 11 338 36 321 39 222 14 22
65 2.760495540432589 -3.4679903092440902 11.622790418264259 215 198 188 0.25041881281799216 37 26 36 328
66 -0.73043493756820288 -2.987825303684343 11.372252734527686 153 152 151 1.1846307662189197 11 185 37 573 36 333 12 286
67 -1.2600273833719564 -2.8791057867237138 11.213143412300951 90 83 77 1.4003778007168697 11 186 37 347 36 335 38 258 12 288 13 254
68 -2.4190804652302824 -2.4033478052888699 10.504755877105849 135 134 132 0.99868097610675988 11 45 37 61 36 340 14 69
69 -1.8294794402467462 -2.8273234559374747 11.954062985423594 74 74 68 0.18078571359865903 11 192 36 341
70 -3.7575053884999452 -2.2702171804408069 10.583234287870908 209 215 214 1.5613494344416923 11 189 36 342 12 290 13 272
71 -1.8924875408204223 -2.5030969174190498 10.929789666175081 165 157 148 0.90654020592312212 11 193 36 343 12 35
72 -1.8694356114060313 -2.4123048608959636 10.694404115878939 169 163 158 0.98995471244552546 11 194 37 355 36 345 35 358
74 -2.5319734190307925 -2.1392968175869131 10.554771487774737 167 163 161 0.62223089008594823 37 579 36 349 12 498
75 1.6166299432215387 1.6930100788741422 7.1979574354510492 84 92 91 1.1238712762345764 37 459 36 436 38 147 35 445
76 1.4818993195840777 2.0667452969048687 6.9048838633406069 116 129 131 0.73382911948898288 37 492 36 448 38 172
77 2.6806256768856174 2.2258565682712237 6.7021928963630986 106 117 117 1.9154777850336311 11 278 36 483 35 240
78 2.737983776113289 2.2482819923892339 6.7707526945347034 103 114 113 0.78527298811971713 36 485 38 187
79 -0.50387339057890568 -3.844744635989592 10.972414313337415 255 252 251 1.0119799229076212 37 337 36 522 38 245 14 6 15 158
82 2.2349562245373491 -3.8005460708894341 12.004864278077347 248 207 171 1.2785934585501111 11 340 37 568 36 528 38 379 35 668
84 1.8627623435456959 -3.204239208563223 11.441565572789177 170 151 135 2.2052107801192156 37 571 36 534 38 384 35 550 39 232
85 1.7733655588030985 -3.1463826730299203 11.438654046205492 139 127 113 0.73910917823016131 11 347 37 38 36 537
86 -1.3320664578668935 -2.791036676204524 11.232899426509256 62 66 63 1.0059175628902426 37 348 36 538 38 393 12 289 13 260
87 -0.40536303150458519 -2.7031449397079972 11.039597339822674 215 214 212 1.1629624754732883 11 348 37 349 36 539 38 262 12 495 35 362 14 274 13 261 15 291
88 -2.7262778450517384 -2.0825410140402698 10.32361123913306 226 230 230 1.6583801152601794 11 349 36 541 12 497 35 57
89 -2.3791012637882338 -2.1298249766728987 10.573530933966094 186 183 182 0.90342046740236237 11 350 37 580 36 542 12 499 13 400
90 -2.7774042074478547 -1.9327803450119485 10.290876053537868 225 233 236 0.71092195543853376 11 198 36 544 12 300 37 66
91 0.15095110268122386 0.031374206606455138 5.2257221898724335 188 209 223 0.32090419241311863 11 362 36 567
92 1.630813796086497 -0.15438279571023994 6.2123914534550515 82 80 77 0.88956664535741936 37 603 36 572 38 291
93 2.3104239873204442 1.2220765601055326 7.7336466589359159 77 70 63 2.0232100760878877 11 385 36 583
94 -0.088473971680024355 1.6204006441309973 7.3281984493989052 75 79 78 1.5943376303471839 37 638 36 584 38 427
95 0.07145601670043189 1.4897649486720743 6.6967132057647598 76 79 78 1.4207929781694397 11 483 36 585
96 0.26880339837789086 4.1518063302962709 22.852697126493617 168 149 133 2.1709250220156657 37 453 36 588
97 1.4984855731679771 1.4384620972819651 7.405229516993594 72 72 70 1.7379218740671893 11 387 36 591 12 653 35 598
98 1.685274229273892 1.6860699841526969 7.2151029874031316 112 120 122 1.0693757317044761 37 642 36 595 38 426 35 446 39 275
99 1.1669527554812826 1.9247009372132036 7.0082842732535013 99 110 113 0.33867381917405837 37 647 36 602 38 438 39 284
100 2.2496328948305275 1.743179879206334 7.2033898668166305 66 72 72 1.3108220911574886 11 390 36 603 38 314 39 142
101 1.7739240499142737 1.8948526761215416 7.0475824522664379 100 111 113 0.85385386374083083 11 392 37 764 36 606 38 434 39 279
102 0.49107564381306434 2.2294146039561036 6.7393302109967426 122 139 146 1.7136170561421726 11 394 36 615 38 451
103 0.72412968457035942 2.6703124942752701 6.3739821279617033 167 178 181 1.5243154667070407 11 411 37 673 36 635 38 458 39 190
105 2.3117449990357346 -3.9940590766731661 12.161386128080718 218 195 177 1.391609665977287 11 457 36 653 38 378 37 567 35 660
106 1.8924530717720556 -3.6401572964994724 11.198046304262659 221 211 201 0.99016929476422855 11 339 36 654 35 741
107 1.119760966070015 -3.5260265266008055 11.408204013433625 169 167 166 0.55166777162067726 11 541 37 798 36 657 35 663
108 -1.4964022539348507 -3.051525835697273 11.052639506742331 203 220 229 0.51176871915176103 37 702 36 659 14 402 13 496
109 -3.7350187416227447 -2.3445297307833481 10.625235989511452 255 248 215 1.3989728465333797 11 463 37 709 36 664 12 630 13 504
110 -2.8023326052575985 -2.0278532793265587 10.405466823016358 197 196 195 1.0160733265545059 11 467 37 712 36 669 12 634 14 360
111 2.0534366275060187 -0.32161508930468241 6.1528011611891795 149 149 149 1.5978425172348967 11 556 36 685 35 694
112 -0.45138874139484919 1.701580387147041 7.2389492883774 54 55 50 1.0581204836602143 11 486 12 742
113 1.066421171068312 1.8041826886647019 7.111819031489623 131 131 126 0.7993184557502373 11 494 36 706 38 511 12 663 39 345
114 0.86134874999386435 1.8506482268073927 7.0765302947016497 130 130 125 0.69020114240154073 37 842 36 707 38 516 39 392
115 2.1904518079759132 1.6877552191775 7.258527065673043 65 72 71 1.3363522324737929 11 495 36 708 38 425
116 0.43628236705504264 2.3103272849963372 6.6698940155244495 98 117 124 1.1480259699518194 37 769 36 713 38 520 39 296
117 1.4837843463510141 8.6238999441433322 20.530551826844889 156 138 116 1.0677643435369435 37 686 36 732 12 598
120 2.5016241347334742 -4.1426936875724412 12.302570305117717 217 197 181 1.1623727219101341 37 794 36 738 38 532 35 739
122 -2.3863932269879768 -2.8278128013891961 10.492737536127528 169 185 185 0.9947173906400788 11 542 37 803 36 744 12 713
123 1.9477358687113817 -3.2292227833637352 11.527455930483647 159 139 121 1.2840873182483965 11 545 37 802 36 745 38 541 35 671
124 -2.8378044984109216 -2.4424886325773443 10.423594422724708 254 251 250 1.0639959638260579 11 590 37 867 36 746 14 488 13 684
125 1.095928602710079 1.8699652805898088 7.0577017159181752 135 135 135 0.88534124195878827 37 843 36 767 38 561 12 750 39 391
126 -0.5399392908334173 -3.914497425773694 10.892614433403455 170 169 162 1.8598097223255352 37 856 36 787 38 581 15 409
127 1.2993994447502621 -3.6152075504024457 11.225080283759967 171 182 185 1.0054714265094784 11 586 36 790 38 583 39 438
128 2.8149872051510867 -3.564216054826415 11.732430419082995 66 66 59 0.49522641182003579 37 799 36 791
129 -0.4945088833109712 -3.0846697557114426 11.330736694468856 51 52 49 1.0297373346217138 11 589 37 804 36 793 38 584 12 775 35 746 14 403 13 587
130 0.0050598165317610189 -2.9618933957208138 11.292336716223877 62 65 63 1.7009129030623282 37 865 36 796 11 591 38 587 12 778 35 796 13 588 15 418
131 -1.1583673899601927 -2.7097397564137258 11.120241190115475 56 63 68 1.3692878623434677 11 594 37 866 36 797 38 633 12 779 14 487 13 635 15 478
132 -1.4056997248734922 -2.642958490111829 11.064402235216187 68 75 75 1.5632445032927353 11 595 37 809 36 798 38 591 12 717 35 797 13 590
133 2.5442434649223733 1.1779404144312466 7.8354780170715452 99 98 89 2.4411412153125704 11 654 36 816
134 2.3666447264144521 1.8200278874503717 7.1077379054051457 109 115 115 1.5520490260610997 11 617 36 820 38 604 35 812
135 2.2939492752088975 1.8389863597642486 7.0848906444142727 73 74 74 1.260656718304842 11 564 36 821 38 509 35 773
136 0.59517960499302658 2.3489212303313214 6.6419397211166382 137 156 164 1.6011754451893296 11 622 36 824 38 613 37 885 12 813 15 433
137 1.3302360532000899 -3.3866213933856972 11.123170408998575 234 255 255 1.5143157334396298 11 665 37 934 36 840 38 662 35 826 39 480 14 482 15 476
138 0.81192017749293677 -3.0204171710766001 11.21104526309743 178 178 177 1.5259099866274182 11 639 36 842 38 586 12 837 39 481 13 679
139 1.7940607607357486 -3.0100676044156449 11.331585846005789 190 185 181 0.95600632833425225 11 670 37 897 36 843
140 2.6079251045135612 1.0465462650828217 7.6405685276853701 36 36 28 2.0964306384193865 11 651 36 860
141 2.3707851682442107 1.1387731960962779 7.8139281820212902 44 45 37 1.6580991430335579 11 678 36 861
142 1.6871594756402457 -3.5150120799310174 11.12439634277461 151 163 169 1.041291527880299 11 664 37 933 36 882 38 625 35 854 39 515
143 1.8844248005360877 -3.4882893128919075 11.30202003448062 244 244 239 1.4521631988151211 11 666 37 893 36 883 38 627 35 872
144 -2.0663205920302015 -2.767733898209412 10.690107961440363 214 230 243 1.4925042598921237 11 667 37 935 36 885 12 881 35 856 14 484 13 723
145 -0.99413254609182222 -2.7813388714528187 11.117544229549662 180 186 188 1.6664499627736877 11 668 37 937 36 886 38 664 12 883 35 857
146 1.890101037040675 1.2608616116837614 7.7395647023907843 167 154 140 1.2237185722331525 11 653 36 890 38 555
147 0.41907821359104785 2.2758094908025375 6.713387022301573 104 120 127 2.0437286805166481 11 682 36 894 38 681
148 -2.4575502047008544 -1.928721025622139 10.110280462746497 214 222 227 0.97177548754878973 11 692 36 901 35 875
149 0.18934540108993003 1.7475525569112882 8.5811187662080624 42 44 39 1.0074843729443697 11 712 36 903
150 0.082705693946360292 1.5857645289884401 6.9752549318472212 34 40 38 1.4512823009850409 11 677 36 906
151 1.1172776325858753 1.9746748852135458 6.9925133814001166 109 125 130 1.0545515795829175 11 698 36 909 38 701 37 967 12 916 39 540 15 541
152 2.0726307740593874 -3.3509718819431709 11.471300388661211 169 144 123 0.85988080233624165 11 702 37 958 36 915 35 889
153 1.6215479889779445 -3.2285082652063601 11.463082305836762 105 106 105 0.82059779227487262 11 703 37 973 36 916 38 705 35 890
154 -2.6482509077249148 -2.2527314721301819 10.475671802794228 98 108 110 1.5421878358824461 11 706 36 917 12 923 35 891 13 778 14 602
155 1.6927125650170152 1.2860839824169281 7.5954984314114427 35 37 35 0.8557258434185786 11 714 36 933 38 711
156 0.23151570296790419 3.1111155918280922 6.1354900002202983 181 215 235 1.9920387246566831 37 982 36 935 12 946
157 1.9967050537614899 -3.0938918831762359 9.3486696041426427 242 240 236 0.13350214811232278 11 724 36 936
158 -1.3329998047427081 -2.8456784414863106 11.033699487481401 84 86 85 1.3557335051943313 11 725 37 989 36 937 12 947 35 902 14 618 38 728 13 786
159 0.032759869265181818 -3.149616835371583 11.280627510250707 93 106 110 1.5796811463672136 11 729 37 993 36 940 38 727 12 949 35 906 14 617 13 790 15 589
160 -2.440263203072893 -2.3617479277763795 10.613284513830271 114 115 111 0.70493854807074519 11 730 36 941 12 950
161 -2.4165570422859401 -2.3565485609709613 10.562861581685809 114 115 111 0.6144394681615778 11 731 36 942 35 907
162 2.4420344826110427 -4.1006764747326745 12.187416136251215 188 170 152 1.5673626902413644 11 16 36 24 35 14
163 2.4420344826110427 -4.1006764747326745 12.187416136251215 188 170 152 1.5673626902413644 11 15 36 25 35 15
164 0.22526851309699786 -3.0914692157006618 11.299018218168781 204 210 212 1.3523839220236418 11 38 36 45 12 20 14 42 13 30 15 168
165 -1.5783556294978687 -2.4466725857644671 10.872438084561026 183 190 194 1.1334270765577446 11 195 36 346 12 291 13 57
167 2.3503969725017564 -4.0957462523217618 12.192512704049996 188 168 150 1.5320983912424759 11 337 36 525 35 542
168 2.2424975490179788 -4.0635767842967301 12.163405268364045 187 166 149 1.348411491928869 11 456 36 651 35 659
169 2.3667491445109841 -4.3294998576547545 12.456243208162249 72 69 62 1.8479381785494657 11 535 36 736 35 789
170 2.3667491445109841 -4.3294998576547545 12.456243208162249 72 69 62 1.8479381785494657 11 536 36 737 35 790
171 1.0282737276260678 -3.6742557420938109 11.456447036405528 209 194 182 1.771497866948885 11 539 36 740 12 773
172 1.8266106198822798 -0.24099169248057134 5.8573461831714253 145 145 144 1.3874504298089092 11 647 36 813
173 -0.93081481248366527 -3.8087699015476946 10.944378706734328 249 253 254 1.2582580090109223 37 8 38 9 14 167 15 159
174 1.2126222627045382 -3.3797176869413499 11.111232195339301 136 158 162 2.41367456178022 11 179 38 28 12 275 39 21 13 241
175 -0.54561577013692442 -3.2505973436465121 11.17171546026057 78 82 72 1.134172447414268 11 21 37 31 38 36 12 16 15 24
176 -2.0589411889895297 -2.7498581642280899 10.851265482755036 223 239 247 0.64379610548965349 37 51 14 62
177 -0.32760215371217283 -2.7192943740796842 11.049441319700135 220 216 214 1.1710992908185232 11 54 37 55 38 61 12 33 35 55 14 191 13 48 15 35
178 -1.0949428760095032 -2.6151858394590937 10.924726195986985 61 63 53 1.2594450660264791 37 352 38 65 11 51
179 -0.73363185479862736 -0.27057513083801665 6.1501551164079729 162 167 169 0.68607969778145561 37 91 38 92 39 109
180 -0.73363185479862736 -0.27057513083801665 6.1501551164079729 162 167 169 0.68607969778145561 37 90 38 93 39 108
181 -0.26914402734015019 -0.1603581121413058 5.958156643789148 206 210 213 0.45223809561827605 37 96 38 101 39 112
182 0.53402439024518134 1.6250101417342759 7.2840042059230523 99 83 73 0.60549330157198777 36 184 37 166 38 145
185 0.78652524456448536 1.8877531991948451 6.9614254139320177 121 121 114 0.58369269864849005 37 475 38 166 12 547 39 163
186 0.95661777614013677 1.9204661389322288 6.9620564332826786 130 131 123 0.38454908442209551 37 212 38 170 39 162
187 0.7613482554595824 2.2338680254978449 6.6929331651245807 103 102 96 0.47280684320429417 37 259 38 198 39 175
188 0.16832823755890935 2.209119614852681 6.5050873210772169 130 130 130 1.557644544808177 37 258 38 201
189 0.46640048419833813 2.6510107659553883 6.0410132132657166 108 114 111 1.9782217477481636 37 537 38 229 12 581
190 1.0228548222553058 2.784671577846153 6.1779380204099104 192 201 203 0.52889551508941701 37 307 38 230
191 1.0861558331238523 2.8728956041040732 6.2077043801316476 115 121 119 0.0061910287335988088 37 313 38 236
192 1.7714605538410608 -3.5651040983663229 11.118113989161079 145 147 144 1.5126162041944005 11 176 38 248 35 661
193 2.80931605618182 -3.5653668906875455 11.450595418869382 222 202 188 1.5879008379898838 37 17 38 249 39 224
194 -1.7110691801785327 -2.8736709930597999 10.917440283894429 95 106 101 1.5704063196664455 37 344 38 253 14 187 13 250
195 -0.9496651835652592 0.25415814514363966 5.8657877440816382 158 164 163 1.690840770255613 37 419 38 305 12 329
196 -0.9324670245582074 0.27594803745113528 5.8791779428474111 132 135 134 1.7047093933958675 37 421 38 306 12 331
197 2.5419848499082418 1.7728883077787689 7.1804636723723103 110 106 97 0.45581778345371177 36 441 38 315 39 141
198 2.0791824062875328 2.0570474036672177 6.9181687532675022 75 73 71 0.71582634382161192 36 459 38 326 39 282
200 1.1402462544026508 2.2148822217723847 6.7486169518850714 134 135 134 0.20191146374968796 37 501 38 334 39 172
201 1.1269301173534525 2.2657363571846303 6.7146478921261057 112 117 116 0.2768897237194386 36 464 37 503 38 336
202 0.26812807650810461 2.5305063631788056 6.5015964400211486 140 147 146 0.25294523981585942 36 237 38 350 39 185
203 0.61258632171536909 2.6779815532028945 6.3231490081511872 159 161 159 1.240776408858284 37 526 38 356 12 690 39 194
204 0.9972814501541617 2.7342864849914337 6.3182287031209032 116 122 121 0.68993115433306251 37 538 38 358 39 189
205 0.99091015760808088 2.7647505796270595 6.3232075458297325 162 169 168 1.079554250588445 37 542 38 359 39 191
206 -1.756747164085148 -2.3682950483501797 10.74255797586661 223 215 211 1.3185512279614353 37 578 38 395 12 496 14 356
207 0.19469762857740036 -1.0330428478999734 6.7941752558028456 215 214 216 0.8268828914759101 37 583 38 401 12 638 39 328
208 1.1636375579562128 -0.80353865160602156 6.6765383148367832 162 164 166 1.635943195185364 37 589 38 402 12 639
209 1.0178567268044318 -0.08402022093005275 5.9711329559656257 156 147 141 0.70418009802066228 37 604 38 407 39 262
210 -0.94941768523611647 0.14957350920747509 5.912024651300368 190 199 204 1.4876303358150809 37 408 38 418 12 319
211 -1.0828198144806689 0.27631482795467377 5.3983914886927353 151 163 169 0.41691951691265478 37 617 12 519
212 1.1524524615414951 1.8769465501874003 7.0542033748403012 100 98 92 0.65837269889219074 36 597 37 762 38 435 39 349
213 1.1524524615414951 1.8769465501874003 7.0542033748403012 100 98 92 0.65837269889219074 36 598 37 761 38 436 39 348
214 1.8632551495601932 2.0110799437120397 7.0336557041714807 120 120 117 1.0514628105299499 37 653 38 439 39 155
215 0.7888499254782666 1.9319772492761462 6.9044754018359473 122 123 121 1.0155164689107339 37 646 38 440 12 665
216 1.1689223549171062 2.1710638759543768 6.7872252916655018 101 103 100 0.45304898531720322 37 660 38 446 39 290
217 0.4907333260474786 2.2377623507511508 6.779222899134667 106 109 108 0.89564552550766008 37 661 38 450 14 324
218 0.72196207903756171 2.6326487426442209 6.3700493331260768 101 106 104 0.88746862693035333 37 669 38 456 12 576 39 299
220 0.64183654003979496 2.6745695078403977 6.2384304111571485 55 50 42 1.4899314132947969 37 674 38 460
221 -0.82010496936014543 -3.8474134412013323 10.886309423180839 251 255 255 1.1083413468402672 37 695 38 466 14 398 12 615 15 413
222 0.40334703817351086 -1.0969385946394201 6.9147831379823783 214 214 215 0.46563024394786384 37 715 38 491 12 637
223 0.2875454721806574 -0.31864397195261174 6.064636847468317 178 179 181 0.39417117144270963 37 719 38 495 39 332
224 -0.20727642281570224 0.12837474417414202 5.8347667222814223 127 127 129 0.65783593116065886 37 731 38 500 12 647
225 -0.87215686589326236 0.14383149002125722 5.8997995824572422 191 200 207 1.2879086338279679 37 730 38 501 12 645
226 -0.54030258454870661 0.19893599371063175 5.794928954386438 129 129 129 0.54724879720138475 37 734 38 502 12 648
227 1.6141348835212956 1.6738708663967912 7.192528138749422 79 78 71 0.19651533717138384 11 562 38 506 39 342
228 0.79083980854489444 1.7961744303651788 7.1333715032781857 118 112 100 0.89092743045090628 36 592 37 759 38 510 12 660 39 346 14 380 15 329
230 2.5730931963647143 2.7901988568214993 6.2513073737012705 133 133 132 1.1491081798482963 38 528 35 328
231 1.0011011020126417 -3.3927938047701867 11.272508493396195 194 194 193 0.9439661612580974 11 544 37 801 38 535 35 669 39 409 14 401 15 414
232 2.4031484797862244 -3.2848626322530254 11.542080207009286 244 212 188 0.6524358230236047 37 862 38 538 35 830
233 1.2142720715625153 -0.93122338778624414 6.7994769910686426 174 174 174 1.5854935440593707 37 820 38 547 12 728
234 -0.78065794931242949 -0.3376391325129301 6.3759620508731398 208 217 223 0.64758614382484125 37 718 38 549 12 640
235 0.74660755769123632 -0.2051078328149209 6.0217448131041547 147 151 150 0.97522207330189747 37 824 38 550 12 736
236 1.2111016115937923 2.4245611171916615 6.6060151130763973 107 112 112 1.1105321076920363 37 849 38 567 12 760 39 394
237 0.18777457066117598 2.3606097388150116 6.6578442095647974 135 143 146 1.1036329935393443 37 847 12 754 14 435 15 401
238 0.62458759925402141 2.662516562430719 6.1388979127301129 53 52 44 0.70915235844708846 37 890 38 571 12 823
240 0.27750939764237298 -2.9854191571707309 11.306480318130898 89 92 91 1.3530340249991801 11 592 37 863 38 588 12 777 35 794 36 795 13 631
241 0.80015978913352759 -0.27669201893974027 6.081210400497981 193 193 193 0.77695026299120273 37 872 38 598 12 791
242 -0.51439707802741741 0.26259965694232107 5.8043806907795341 147 143 141 0.49041320040138459 37 829 38 601 12 797
243 -0.68501541323684623 0.27251408882451877 5.797952082267722 152 152 150 0.99037735993548148 37 828 38 602 12 796
244 -0.02998289695561529 1.659101783490073 7.3330954903659622 46 47 42 2.5268789485192347 37 878 38 603 12 803 13 757
245 -0.73148346746633286 1.8769192603445013 7.0812063785505863 103 103 96 0.24059297772657695 36 817 38 606
248 1.2413040723734139 2.2955957413722707 6.7311796824798611 121 125 123 1.2245015641715988 37 925 38 612 12 869 39 469
249 1.0666028520156661 2.4857249808018902 6.4932090066956638 146 150 148 0.87076828794271399 37 887 38 614 12 819 39 471
251 1.861113316622395 -3.4016128463669437 11.125998148951469 255 255 253 1.1360394866832375 37 894 38 628 39 479 14 444
252 0.73255136340269134 -0.0183725577817304 5.9936419727926546 141 134 128 1.0249585405320909 37 907 38 645 12 888
253 0.35288681941242495 0.070401646011890723 5.9000996407171744 147 140 134 0.64466551230372093 37 908 38 647 12 852
254 -0.3149582280424319 0.20318937030724898 5.8368176897853958 152 148 147 0.7046475573621217 37 911 38 650 12 855
255 -0.84679346707605219 0.31465797476737889 5.8273240574519054 143 143 142 1.5533097923812829 37 876 38 651 12 798
256 0.41936238013241012 1.5907382166614452 7.4115455787243389 193 175 160 1.9531865330173686 36 862 38 652 12 891
257 0.40684747464928139 1.5984045978272285 7.4350175965158067 193 175 160 2.3377929397040949 36 863 38 653 12 892 37 965
258 0.60007025458804342 1.8095769499899828 7.1201792731466869 74 75 75 0.73128020552040796 37 917 38 654 12 861 14 511
261 0.99682363349517444 -0.31654731782993978 6.0983443957851193 188 188 188 0.93827666527326636 37 940 38 672 12 887
262 0.59528056795623008 0.014486585018920931 5.9200515912201181 150 141 133 0.73698851558643896 37 941 38 673 12 889
263 0.17017477463888203 1.6160289455007164 7.1827231645826535 166 148 134 1.2044288735800806 37 948 38 678 12 911
264 0.83640203631936627 1.8963971202952328 6.9620638428183295 121 117 105 0.57116450279517106 37 951 38 680 12 894 39 506
265 0.86557082982337286 2.4575150430862749 6.5245735019375957 109 113 112 0.45413405269368112 37 953 38 682 12 895 39 542
266 1.1949434138002668 -3.9431141442737974 11.393511281749435 216 191 170 1.4610767359583758 37 954 38 686 39 556 14 588
267 1.4157092064842791 -3.5572836862549941 10.674510515598648 255 255 251 0.13829352271140785 37 955 38 688
268 -0.75858487592508239 1.8807859076470863 8.0619259909218872 61 59 51 1.50910411092317 37 966 12 912
269 1.6239652938314855 -3.2167202260551302 11.425793118407947 119 119 117 1.3275933623983807 11 704 37 972 38 704 14 599 15 577
270 1.1589667907211294 -0.83326102111886668 6.5646002572034048 178 180 181 0.92146461189612994 37 978 38 710 39 558
273 0.34885356842196968 2.0781078734065579 7.0537511395030412 80 84 82 1.0713953839589208 37 998 38 734 12 953
278 0.31170407016194002 -3.8608830351989742 11.936191244036189 252 250 243 0.37982843409481992 36 26 12 12
279 -0.00020856015424608465 -2.9266188054379709 11.364796466061902 58 52 42 1.5627000282518928 11 46 36 52 12 25 35 50
280 -2.259124330841038 -2.5583262483294886 10.534288297911903 158 157 152 0.97460416099599934 11 37 12 26 14 192
281 0.23812405551358695 -2.9257863154486916 11.344577378296053 255 251 203 1.6944511155029667 11 50 38 56 12 28 35 51
282 -1.8015494790767499 -1.6797723845470944 7.4110449025786336 116 128 128 1.0128707393988705 37 56 12 29
285 0.24507465824514019 -3.3471193157236896 11.228985689505915 93 107 107 1.2423105954015086 11 342 12 277 13 24
286 -1.9271821682464361 -3.0401616347174256 11.608845289584037 89 102 107 1.4658886565072773 38 256 12 284
287 -0.89358471202739165 -2.9553359911412316 11.249839740597954 161 160 160 0.91876535637840695 36 535 12 287 35 350 14 52 13 252 15 287
288 -1.4576952963866461 -2.3974170799928296 10.786577977928792 229 232 235 1.6217088821087728 38 266 12 292 14 74 13 270 15 45
289 -2.1590081775605743 -2.2741266374000313 10.627803980712367 177 163 155 1.6367128344583697 11 196 36 60 12 293 35 56 14 199
290 -2.6654205907434632 -2.1211421944922404 10.546366013626214 189 192 193 0.89680681455116207 11 58 37 358 12 296 13 275
291 1.2505006135894248 2.1614358928373085 6.795078619289777 145 159 164 1.6351121339003303 11 115 12 403 15 118
292 0.96624118187814445 2.4719640841527144 6.5464987353193367 103 117 123 0.66695099068489139 38 344 12 427 39 181
293 0.77682531011931644 2.6549563526950233 6.3932216944668516 101 118 124 1.4334668104206449 36 491 12 440
294 2.5281896241804298 7.6670899086840745 20.325048998102289 173 188 195 1.3248428830870767 36 276 12 442
296 0.86675002188648653 -3.8173820361007547 11.397040176688309 179 160 144 1.7745765036351535 38 247 12 486 13 4
297 -4.2841099067719375 -3.4049822321166086 11.402754249823143 174 193 208 1.8864785492737681 11 335 36 524 12 490
298 -4.4696176354031207 -2.9086638533187594 11.092352141362989 176 192 202 1.5644392343078266 11 175 12 492 13 497
299 -1.2523167904367241 0.32243415821953036 5.0324541637368547 153 173 186 1.0263974275557 37 620 12 520
300 -1.3219554533939535 0.42052343681960164 4.9209608492165016 155 169 174 1.2497763225183012 37 626 12 523
302 0.54640753728538127 2.9961084825077293 7.1720089866900318 105 120 123 0.42392837997564914 37 533 12 579
303 0.7970783291572473 2.6605666839208086 6.3718343504215511 150 161 163 1.3224238045686187 11 414 12 580
305 -4.3745992819379431 -3.3084027858539162 11.466703888383796 208 221 233 1.5359528395072726 11 534 12 623 13 584
307 0.50936146713912278 1.6081728760341576 7.4462762217736094 64 64 59 0.086165742208094864 37 750 12 655
308 0.72786766226919541 1.7989466444834448 7.1329460600088668 90 94 91 0.54757837379623597 37 758 12 659 14 381
310 -0.45443345720329642 2.5402180717277956 6.4861639930228687 0 0 0 0.97807012317285125 11 502 37 776
311 -2.4513495138272106 -2.7125367647392125 10.259083559793714 255 254 253 0.6737641121071748 11 543 37 805 12 714
312 -4.4098380911522739 -2.7803090570588029 10.983776367425287 199 215 226 1.6210358121082411 11 540 12 715 13 634
313 1.1720859673506254 1.2265305912247157 6.4746388400499804 54 49 41 0.43634552778289526 37 747 12 740
316 -1.1399480241489339 0.15378997812367912 5.4336944277113508 170 186 200 0.47516741471960167 37 909 12 850
317 1.0533324453168329 -0.046970782519422813 5.38438960155261 142 142 140 0.17275551508881215 37 906 12 851
319 1.0601586058718158 1.8829123947635356 7.1550886108778577 126 126 124 0.73612041027248598 38 679 12 893 39 505
320 0.59762835447670282 1.5302235556301409 7.6811537674064541 51 49 43 0.3948533292639318 37 963 12 909
321 0.56248386956950658 -1.2481927987609491 5.9511993092636839 208 208 206 2.3280535763802899 37 994 12 951
323 -1.2541369494923158 1.4666500850485182 6.8702225119584579 92 92 92 2.2830783291793346 37 149 12 97
324 -0.40627196576343694 2.7752070969158051 7.1429406985414774 131 143 152 2.2693010436164269 37 666 12 567
325 -4.9770188829878599 5.0441471370365498 22.60418529966854 0 0 0 2.112416424454624 36 426 37 841
328 -1.3252338758485172 2.0067496688891175 7.3252312971857902 54 57 56 2.9335824219488966 37 883 12 808
330 -0.55753271095347445 2.6482990988780815 7.1493697367235427 128 145 153 2.3827585110043135 37 927 12 868
331 -1.3868391515705265 2.2161677034627418 7.143759222861326 145 159 164 3.427396074930098 37 968 12 915
332 2.3164965705460618 -4.3318923019863611 12.339401879647756 212 193 172 0.91612115313978448 11 4 35 7 15 2
333 0.46237687556165008 -3.9180793745274767 11.925977423160369 169 150 127 0.10332093593059648 12 10 35 11
334 2.3890992702969305 -4.2465441871307306 12.398708440951975 58 52 44 1.1635094185483263 36 20 35 13 39 5
335 0.0070788981026961295 -3.3755410918515047 11.236700394814335 165 161 152 0.95980636023763211 37 24 35 17 13 20
336 1.8525634343113486 -3.3789077052946257 11.353703244236733 99 94 75 1.7571150044566684 36 39 37 27 35 30 14 36
337 -1.4418464480041977 -2.714920798409342 11.018486878277908 163 146 133 0.43144529454421643 12 30 35 40
338 0.047816539742899011 -2.9239378031162713 11.398383163515334 253 246 196 1.8319431046264945 12 27 35 53
341 1.1852390610180219 -3.3601157550626719 11.272366977648785 183 189 185 0.4343349864007755 11 180 37 341 35 347
342 2.4837769820144424 2.2468903897074091 6.7300346153872574 117 129 130 1.1487375200293517 38 447 35 490 39 164
343 2.1161797988098114 -4.1781164118347007 12.34967369222376 210 184 166 0.085572635220215298 36 317 35 540
344 1.7995398326892302 -3.3634839367521763 11.247340196400346 255 253 247 2.0831022554785972 36 530 35 549 39 318 15 283 14 348
345 1.3133068656788214 1.3329945535850904 7.4189153944852304 42 42 35 1.3706566275507965 36 582 35 592
347 3.5298947252107862 2.3290253337059781 6.6155528674640669 188 194 191 3.4404682938338507 36 643 35 636
348 -2.6622425050594933 -2.243384625981129 10.091075597035896 106 120 117 1.2314377122403153 11 593 35 670
349 -3.7399285493298349 9.442131020980904 21.159517476621325 75 72 72 0.69145977448194784 12 454 35 711
350 1.1828012702389366 3.5402622334425211 20.39722039198195 77 74 64 0.44656033297298237 11 492 35 769
352 -0.48849865406451509 5.1032334477114443 31.865041082356786 170 149 126 1.6599630978104352 36 760 35 807
353 3.038958256145833 -3.6061212458124237 11.89439811582813 71 72 64 1.6370090188326867 38 629 35 827
354 3.038958256145833 -3.6061212458124237 11.89439811582813 71 72 64 1.6370090188326867 38 630 35 828
355 0.45478853467301472 -3.0351490126825462 11.295132686115176 163 167 171 1.4781332441526782 11 638 37 896 35 829 39 519 14 530 13 722 12 882
357 3.205456431682586 0.99452058444971603 7.8219231296468692 105 99 90 2.0365644909826957 36 891 35 864
358 0.67374291715815982 6.0959414602294437 24.266018542879923 94 94 94 0.62833620654280942 11 740 35 914
359 2.2438646602047232 -4.0837617751980115 11.608642810820685 116 112 99 1.5476829043704061 38 11 39 4
360 0.0121649300873512 -0.084453629747616568 5.8063557844431211 194 190 189 0.1370983796592338 38 111 39 114
361 0.76259928587093617 2.6295919517406596 6.1797569665427563 77 71 65 0.81358210785404095 38 226 39 300
363 1.8240374241279258 1.2963878588396907 7.5182278486924528 74 55 41 0.70142064869753273 37 834 39 341 15 319
366 2.4062453608538124 2.3236959782376649 6.8172099878876002 88 85 77 0.70532125134521584 38 565 39 428
369 1.7583174250331139 -2.944800075094133 11.120135495895999 219 205 196 0.94080318435894028 38 632 39 482 14 531 15 516
370 -0.79105711863926009 0.12469674235034929 5.8178750092223481 180 183 184 1.0305196330953519 38 695 13 752 14 581
371 2.097278827854884 1.2410971071589292 7.6587630486660068 216 187 163 1.3281875104316085 38 697 39 536
372 0.37023419402046964 1.6026422446251545 7.2543442237897846 213 186 167 2.5754071972789365 37 964 39 539
373 1.9962452035418656 -3.1741885214389649 11.072230687777672 202 175 152 1.5285900775506103 38 693 39 546 14 570 15 513
374 -1.1665483696143082 1.7329245420398403 6.8965104645941402 95 93 88 1.7542957438781828 38 715 39 554
375 -1.3755057571749529 2.3235144727456731 6.9987044614156995 142 145 144 1.7651924205775149 38 716 39 560
376 0.89446917793170766 -4.1715599850954099 11.85697937793779 222 187 164 1.0963380748201379 12 937 39 561
377 2.3975749275880163 2.3765620793689246 6.2726326803587948 179 153 129 0.70411798068025699 38 721 39 567
378 1.5310437689640803 -3.1611225456933121 11.219125315110283 126 126 125 0.62591304191405761 38 722 39 572 14 600
379 0.95062869776586356 -2.5912063154113256 10.91677143227502 219 212 205 1.4935644952685962 38 730 14 610 15 579
380 1.6624276727552538 -3.2807195353494252 11.167997062142728 96 109 105 2.1799077874065991 37 29 36 40 11 182 39 29 37 28 36 532 38 250
381 0.87138895362188251 1.7930378666585407 7.1265588269545326 89 90 88 1.4049297343357281 11 614 37 880 36 818 38 605 12 810 39 390 36 704 38 514 14 460 15 427
382 -0.51581187782888183 2.4973225755624013 6.6243427181507446 154 162 166 0.75102859411434797 38 615 39 432
383 -0.30531909363984677 2.720004053610293 6.4233991427218493 135 141 142 0.27888778445696194 38 573 39 433
384 -0.49059766112802539 2.5545465832854592 6.5310104234976141 128 132 134 0.68691380502899135 38 658 39 509
386 2.9066074756380118 -3.487356760725258 11.338659984222677 86 96 91 2.5679543749367983 39 225 14 30
387 1.4297349615210773 -3.4109320844473201 11.158675557186699 228 253 255 0.00067309046241769029 11 23 14 33
388 0.33718992614001558 -2.2053374351371304 10.564834750374505 248 240 229 1.0141179918479684 39 56 14 79 13 60 15 47
389 -0.61237722314418397 -3.8620151033807022 10.90539443235093 255 254 245 1.3590246339375505 38 375 14 165 15 154
390 0.42588768344966688 -3.0297542256782677 11.077758406613453 173 175 177 1.5748351645098613 38 251 14 177 13 244
391 -0.63878233639516635 -3.0198701487784749 11.262643793456174 94 90 87 0.61188229209444134 11 345 14 179
392 -2.4702208296532353 -2.5467215413117437 10.521295888531599 127 134 134 1.1245972411946352 37 53 14 193 13 262
393 -1.5136985206854665 -2.6409894979955992 10.981126984703714 173 171 166 1.2161103159244118 11 191 14 194 13 395
394 0.41748405494425245 -2.3811744618786927 10.696470029581013 216 211 208 1.1565604689639741 39 53 14 196 13 266 15 175
395 0.31128144335192193 -2.1021542305459877 10.579380279256288 237 228 222 0.71528287505917898 39 249 14 201 13 276
396 0.152609239950735 2.2462035224314447 6.7296740935807327 119 120 117 0.56633028917690165 12 400 14 243
397 -1.1514228877308592 2.6166550767420107 6.4529966906676544 144 151 154 1.5625028847041869 12 218 14 254 13 348 15 147
398 -2.3584115098036036 -2.4872908746113911 10.530573620683613 103 104 96 0.96387569854516764 11 346 14 275 13 265
399 -3.1908533109711037 -1.0092969513545635 9.6398231055928765 164 171 172 1.4574008101238334 12 310 14 296 13 290
400 -3.0191872238822541 -0.42124014173533075 9.1507656271498643 157 167 171 1.3991686330523063 12 313 14 302 13 296
401 -2.5023706734128393 2.1292389556945266 7.0049681641202275 165 186 198 0.31177160015951477 12 370 14 329
402 -2.5676572336595536 2.1372549308809687 6.9884320921761738 140 152 157 0.54260431148062993 12 369 14 330
403 -2.5399993574802799 2.164415413918249 6.9749015632831819 167 186 199 0.57817917683170761 12 378 14 331
404 0.39424469186342409 2.5674663000493152 6.4554716228756739 134 134 133 1.1159908278060942 12 432 14 334 15 258
405 -1.5138163409236141 2.6007270276956529 6.5030106192025166 128 138 140 1.9464096376029236 12 561 14 336 15 351
406 -2.9332091063320447 -3.9533393030687116 12.001883224580501 182 199 210 0.58933414796656536 12 620 14 343 37 699
407 0.048835639597927027 1.5767931419378098 7.2748223362550304 67 69 61 1.8779086904012796 38 144 14 376 15 235
408 -2.6349621198548574 2.1771909874725002 6.9295383884034862 163 181 194 2.5563439867523448 12 543 14 392 13 447
409 -2.5065091204161263 2.2571197865831594 6.8635954712195693 163 185 193 2.335250037374387 12 546 14 393 13 546
410 -2.3984072447681943 -2.5484705855709775 10.576074914386572 253 255 255 1.0604167697671163 12 716 37 807 14 406 13 589
411 0.38891243707375056 -2.1484685898346485 10.569644457701861 85 85 81 0.96864306356682262 39 448 14 409 13 592 15 421
412 -2.4636104098365594 2.1809528953042192 6.9339304337713266 134 146 152 2.1765621851957526 12 545 14 437 13 544
414 -2.92270269299495 0.013714854729399331 8.7736260369540844 152 162 171 1.5985671219020263 12 642 14 457 13 604
415 -2.5062801324985111 2.14805798843879 6.9927281869868523 151 171 183 0.51773514813937238 12 746 14 467
416 -2.5232975203867278 2.2074006256064109 6.9019542004789214 138 153 161 0.44610268407853254 12 662 14 468
417 -0.37105689641761574 2.8718179895940468 7.1442013251269501 0 0 0 2.2819104834337582 12 761 37 852
418 -2.9437090621626356 -2.6087437077902416 10.321841349851697 173 206 227 1.3901932991810861 37 864 14 485 12 776 13 632
419 -0.4483256196986809 0.30021448379358268 5.9783982497289943 162 155 149 0.93473461564776095 39 462 14 503 13 656
420 -0.79422574081794628 0.35163024619743777 5.8694688793230902 159 152 146 0.64874015508557947 39 503 14 504 13 700
422 -2.7404845200343639 -2.6009304271590619 10.437115340346189 149 157 159 1.2952759922680468 12 836 37 936 14 535 13 681
423 -0.6410826866323478 0.31634435887193058 5.9068100360140754 168 160 150 0.90235723601049511 39 502 14 558 13 733
424 2.0078794530671527 -3.1774831855233456 11.095694915898715 210 182 157 1.7807927831367889 39 545 14 569 15 512
425 0.0061573640211165515 -3.8984341884224381 11.469967419885046 255 255 253 2.088882699294051 38 732 14 622 15 597
428 -1.8627092833241736 0.14223441462531239 5.879851113382716 164 180 190 0.86939686412938544 14 223 13 116 15 217
429 -2.3164991367351275 0.87754810821927653 8.0475901227682325 182 194 197 1.443034926168874 14 118 13 138 15 231
430 0.12968674592392937 -3.1691887609010743 11.395526298044802 90 95 96 0.84384066208782738 14 266 36 329 13 243
431 0.067086437883714711 -3.1117884433848224 11.346644139626635 154 151 151 1.0983055749265851 12 493 14 178 13 245
432 -0.91012970842860441 -3.0030514527130299 11.381405029749128 158 156 156 1.064197494323287 14 51 13 251 15 169
433 -2.7874388477481631 -2.5629561782580632 10.235572416331031 110 125 128 0.76697618895205089 11 27 13 257
434 -1.5687548288475859 -2.3930419598361876 10.80883497763501 225 225 225 0.117667216105827 12 39 13 268
435 -3.9269046506571383 -2.3000678167000679 10.65811806090872 247 228 206 1.5400586475942786 12 36 37 62 13 271
436 -2.159936083584145 1.4660028141686705 7.4621144238743202 134 141 141 1.8868462474641809 14 316 13 308 15 248
437 -3.4558533612290017 -1.9693942069507813 10.420147022571733 190 195 197 1.6121574901717493 12 635 37 713 13 403
438 -0.023777887098714978 -0.88630136405730497 6.7628792374840057 0 0 0 2.1262846121044388 12 307 14 293
439 -0.73789076198672832 -0.2258421912646576 6.179897681794035 175 175 175 1.1105011480652882 14 299 13 418 15 208
440 -2.4687183777401618 0.25973036814749162 8.655194538855504 166 175 176 1.2317167316853579 14 304 13 425 15 380
441 -2.4687183777401618 0.25973036814749162 8.655194538855504 166 175 176 1.2317167316853579 14 305 13 426 15 381
442 -1.7658834707743405 0.41849228517321335 5.6294174581100087 140 144 148 0.33199297940484729 14 371 13 427 15 383
444 -1.5432964173613835 2.5633568522241195 6.416543555136748 129 139 142 1.137606758015731 14 396 13 458 15 352 14 335
445 -1.6039830351080764 2.6460318167274965 6.5149380082839876 137 148 152 0.42025538407007879 12 677 13 554
446 -1.1478967545218537 3.0147658691684014 6.1677086466996212 139 149 152 0.55035433833733283 12 588 13 564
447 0.88635683091645945 -3.8499330793809734 11.627502841089772 0 0 0 0.28483533342932621 14 344 37 700
448 -3.1702590602351566 -3.8528628676001628 12.096864081931187 58 68 65 0.65763838894644511 12 708 37 795 13 581
449 -0.16930323887275756 -3.2194338612091147 11.473118750445863 82 91 90 1.8908536470507329 12 627 39 439 13 586
450 -1.4563970393344006 2.0052369685126132 6.9425762024726518 102 106 106 0.92074464417945967 14 433 13 613 15 436
451 -1.5924188220915019 2.1597742463761551 6.7843371192834478 116 124 126 1.1844928677708702 14 436 13 615 15 439
453 -0.33088110575753571 2.5815411632119187 6.5153184053701709 125 131 131 1.1602607893710937 14 439 13 619 15 403
454 -2.9940543687312267 -3.9019358572797977 12.172019055051646 50 55 56 0.79613914487123505 12 771 37 858 13 628
455 -2.9940543687312267 -3.9019358572797977 12.172019055051646 50 55 56 0.79613914487123505 12 772 37 859 13 629
456 -1.3483707555261137 1.9090785675718467 7.2056645240927022 167 150 136 1.9724202043166486 14 520 13 662 12 744
457 1.3017695120605897 -3.553780472118687 10.892121151404547 181 207 216 0.65957744477492808 12 833 13 677
458 -1.0036549757455413 -2.8797667496687835 11.270127170986139 173 173 173 1.8121176070904859 14 533 13 680 15 519
459 -0.63766897523319277 1.7463289798676742 7.2787251534066453 60 56 47 0.5605443189964936 14 512 13 708
460 -0.73677861765883934 1.8315628541289324 7.1894890270797962 99 97 88 1.6135055095889417 12 807 14 514 37 879 13 709
461 -2.8469350334578971 -3.9814827403404416 11.703035805780408 124 149 161 1.9098869080582688 14 528 37 892 13 717
462 -1.5072268709937804 0.47630669612326049 5.6575577936637513 137 137 135 0.73632848789022898 14 560 13 734 15 535
463 -1.3489426052498352 2.1093606090759351 6.8535041407550281 127 130 129 0.50902786740478978 14 586 13 758 15 558
464 -1.0320841280802502 2.1534006979757438 6.7845143420613647 130 134 133 0.40325187563775899 14 587 13 759 15 557
465 -2.7700709760644346 -2.9841860603039976 10.90277391109724 245 255 255 1.3848178775150475 12 920 37 971 13 763
467 -1.350836102565057 1.9356578144724239 7.015205381677835 73 68 61 0.26623443036867139 14 323 13 440
468 -1.3234913687444796 2.0493693553601418 6.8802271648333537 125 128 127 0.47013627775443001 14 466 13 663 15 463
469 2.3056071182077509 -4.2460041460251237 12.127689336631615 92 85 66 0.16782803116463285 37 9 15 3
470 4.2304423100421671 -3.6772001685650046 11.377550846137243 248 249 239 1.2156614116263917 38 19 15 8
471 4.8300273100584175 -2.8387077722382461 10.656208907192726 255 244 218 1.6335396489303262 39 33 15 167
472 3.5518618214000544 -4.4305771350203003 12.285348054153362 116 97 72 0.9361532578492916 39 365 15 277
473 3.4994813047431501 -4.446318482245756 12.165033138260176 116 97 72 2.5493542404280185 14 339 15 278
474 0.31772469865638886 1.5325426305647227 7.3784366585685905 70 58 41 1.5201762385175432 14 427 15 385
475 -1.7573398762571455 1.2882657823625643 7.443883070166911 116 137 145 0.56460146697993918 14 231 15 392
476 5.0768344355614952 -2.8377453197204545 10.600771257626523 255 219 176 1.5945794987258806 39 370 15 415
477 0.026954065584568143 1.5805728436004105 7.136566874527924 173 154 134 1.3815503194854022 12 531 14 510 15 428
478 -0.29895038393833617 2.6524971329386853 6.4606359223338918 119 121 121 1.2182439035141943 13 620 14 470 15 441
