# 3D point list with one line of data per point:
#   POINT3D_ID, X, Y, Z, R, G, B, ERROR, TRACK[] as (IMAGE_ID, POINT2D_IDX)
# Number of points: 428, mean track length: 2.4355400696864113
35 0.19024493784055355 -0.13270941444878592 7.5455668300702783 226 181 157 0.99370210971794481 5 206 27 478
36 0.83035044389881052 -0.11126197949143544 7.6714777277198563 251 213 192 1.0470500906187561 5 238 27 493
37 -0.31381148661211244 -0.064558068521640088 7.4212523177892402 45 65 71 1.1903686405798883 5 218 27 516 4 307
38 0.27430259802110807 -0.08158305418046799 7.5540687788067959 109 100 92 1.4608132616521594 5 872 27 519
39 -0.33626157117113092 -0.046031766334059754 7.4102917724549595 50 65 66 1.0226652807935233 5 230 27 543 4 314
40 -0.26440090987859716 -0.0089818034070128783 7.4133155691958255 255 249 235 0.49900039345516689 5 261 27 561
41 0.50953206766285186 -0.016778632857096926 7.5889898703560803 252 232 212 0.35267674897803875 5 886 27 563 4 340
42 0.50445483051212836 -0.0057473140575327155 7.5844302640775059 141 99 74 0.49191345855168311 5 294 27 570 4 344 26 696
43 0.5046413283068395 -0.0042906258988656427 7.5857422013271858 141 99 74 0.21243452974202862 5 293 27 571 4 345
44 0.55200028459446149 -0.0022396153382922266 7.5920285896565787 249 222 201 1.7920758335453293 5 889 27 575 26 701
45 0.11228680082769314 0.009714999248568364 7.5021662489528467 62 56 45 0.30549947914764658 5 288 27 578 4 347
46 0.53715405565565 0.0080753215029223495 7.5868899245892436 67 30 3 0.74349344932312667 5 890 27 579 4 899 26 1304
47 0.53715405565565 0.0080753215029223495 7.5868899245892436 67 30 3 0.74349344932312667 5 891 27 580 4 900 26 1305
48 0.15459244856587911 0.019422411392582863 7.5075966485758894 255 230 205 0.20429005496551286 5 292 27 583 4 348
49 0.058544666669259046 0.030210735579286954 7.4781890776634175 200 216 234 0.19669381136202446 5 296 27 587
50 -0.011913998529019627 0.037191081621372489 7.4711014327516549 14 21 8 2.2301589438896117 5 299 27 589 4 354 26 1310
51 0.15660190036286389 0.033881212946790383 7.50374902113857 75 55 37 0.93957317681417163 5 304 27 590 4 356 26 719
52 0.19550178544322871 0.062421436836511648 7.491296240649544 70 54 36 1.3923304963576337 27 601 4 912 26 734
53 0.88166464345344975 0.11247911657417602 7.6202501506614224 32 10 3 2.1391512571387379 5 910 27 615 26 744
54 0.88179059413735694 0.13934306155279336 7.6176742028390381 49 25 0 1.7723051064393212 5 918 27 623 4 401 26 755
55 0.87812409855574447 0.13968868082056818 7.6216169232456803 49 25 0 0.96304491596596364 5 919 27 624 4 400
56 0.46066387577782009 0.22418849955390577 7.5228077457839504 9 14 6 0.70492846848472368 5 368 27 645 4 419 26 1336
57 0.57247272735747912 0.22946432920419071 7.5425143376747066 255 241 215 1.0181172424194465 5 373 27 649
58 0.83927920680318857 0.23592213949379531 7.5888420716049456 26 4 0 1.7398145076817895 5 930 27 650 4 936 26 1337
59 0.8474960361338113 0.37825091349344542 7.5563365927874564 220 214 217 0.0026954901733531418 5 946 27 702
62 0.15616468320647373 -0.51031244740392634 7.6177340969729634 8 12 4 0.67337337947162579 5 1161 27 1121 4 794 26 1206
63 0.15493053099201348 -0.50977566874365332 7.6190033143380971 8 12 4 0.56505055320764841 5 1162 27 1122
64 0.18699438604874652 -0.50401062833975963 7.6226334705308645 1 4 1 0.68385075841420828 5 789 27 1125 4 795 26 1207
65 0.18695652563745072 -0.5047934826842787 7.6218653666862197 1 4 1 0.74277420394240734 5 790 27 1126 26 1208
66 -0.49554052328885778 -0.39644349456688455 7.4528751509813747 219 181 162 1.3251659817472012 5 1166 27 1133 26 1218
67 0.28238008939220921 -0.44214411804161113 7.6306273298176261 209 190 177 0.5467745786010707 5 807 27 1137 4 802 26 1640
68 0.28192793171729197 -0.44148499947869602 7.6316157799192741 209 190 177 0.51383382142399336 5 806 27 1138 4 803
69 0.68091918156408893 -0.41233685534872139 7.6357647422018244 251 251 249 0.27467957451713598 27 1142 4 806
70 -0.36460087097401167 -0.35984922364015942 7.4878990805177947 198 176 167 0.32584922598224442 5 96 4 194
71 0.55263825093631691 -0.37119338470153573 7.6690764541330108 39 50 45 0.88056628857830599 5 820 27 1153 26 1231
72 -0.5634814050606155 -0.2927155048171895 7.4273132659140355 107 83 64 0.61373049740307339 5 816 4 822
73 0.53251394934837926 -0.3642077887784837 7.6664137754237158 247 254 254 0.83237736475534463 5 822 27 1157 4 825 26 1233
74 0.51728353482795986 -0.3374409584964182 7.660159032541606 41 49 46 0.96450003809471907 5 138 27 1163 4 834 26 1239
75 0.56500545458698204 -0.31127131573126748 7.6643189335161015 252 251 253 0.46633527412889841 5 833 27 1170
76 0.37676108844965506 -0.18766891186489795 7.5940582649275061 86 80 69 0.60998861932344195 5 190 27 1187
77 0.31988680449196266 -0.11121859913480663 7.5658142389078238 251 253 253 1.0137058581721341 5 867 27 1201
78 -0.33879271919032516 -0.037983367286625089 7.4000735300657787 251 255 255 0.24301765251002971 5 239 27 1212
79 -0.34595973211809855 -0.020727097683055584 7.3936064181299566 37 44 43 0.19964456602093916 5 873 27 1218
80 -0.3373635181084384 -0.00866457175636344 7.3964701655469014 252 251 250 0.17688079456049011 5 877 27 1220
81 0.48327847329562623 -0.012397154599779345 7.5813989067693335 255 237 218 0.59288796958971224 5 1241 27 1224 4 898 26 1303
82 0.027108807103129996 0.034551754005590053 7.4810415135148345 250 254 255 2.1094807053277145 5 888 27 1231 4 902 26 1700
83 0.026496143559553018 0.05086777944204357 7.4690364708362855 12 27 20 0.79960921412159003 5 305 27 1237 4 909
84 0.86277075117657764 0.0939306820649978 7.6225693554145071 63 35 1 1.2668791255778844 5 905 27 1242 26 1315
85 0.88428697988646054 0.19222777601996133 7.6034888808647363 204 156 127 1.7485262532525878 5 924 27 1256 4 1198 26 1325
86 0.3249944576175457 0.1891215824236972 7.5021952230444242 183 184 185 1.0791354749748785 5 357 27 1258
87 0.51619741124920537 0.24105581651005298 7.5298522985713383 12 16 6 1.201753159256612 5 928 27 1267 4 935 26 783
88 0.5393794897888553 0.24962981939553322 7.5304569357104905 4 4 0 1.9665057832614805 5 929 27 1268 4 937 26 1347
89 -0.44395377182701939 0.2778093152070496 7.3741851818538766 54 45 44 0.96047020726765242 5 913 27 1272
91 0.80550399196090339 0.58952209383563015 7.4922432556546585 161 162 163 1.5457977290601368 5 466 27 1305 4 492
92 0.34054454320810701 0.59465142780728164 7.3838264226806025 174 169 160 0.57958229624744129 5 458 4 966
93 -0.49231856692378273 0.67787881404131856 7.2436607588982271 242 253 255 0.7868229474097832 5 446 27 1321
94 0.30897394329089362 0.70317127188624329 7.3356426654127098 186 164 151 1.5133315193810475 5 481 4 971
95 0.4486500167818972 0.7498117925403095 7.3540413327750862 157 156 151 1.3600615849361053 5 493 4 519
96 0.4486500167818972 0.7498117925403095 7.3540413327750862 157 156 151 1.3600615849361053 5 494 4 518
97 0.22905995663541617 -0.59082646260381433 7.646959065801294 172 159 151 0.88905364359368444 5 1408 27 1495
99 0.6629222924942425 -0.45196106120816193 7.7066553934777371 255 255 252 1.846393527708095 5 1169 27 1508
100 0.35198127337254997 -0.42620485766903959 7.642670552093441 195 178 170 0.68354088029939952 5 1173 27 1510
101 0.70847564934148277 -0.39306520934935257 7.6985747679920147 172 151 138 1.4875128693602655 5 1181 27 1513 26 1226
102 0.74401142608917292 -0.38421141518378737 7.6992570765104622 177 154 141 1.9028247868104509 5 1448 27 1516 4 1134 26 1646
103 0.72151221211254346 -0.36120868543304313 7.6955157456783576 179 150 135 1.4480129503629215 5 1454 27 1519 4 1138 26 1651
104 -0.54992220447420681 -0.28697271432274912 7.4301636911829778 210 195 190 0.4848901900497079 5 817 4 824
105 0.46355869224266588 -0.32861721753910078 7.6491287795011944 61 59 53 0.79347454939994444 5 1193 27 1528 4 1145 26 1665
106 -0.3845306283195456 -0.28303302207125824 7.4453097427023414 154 126 105 0.61797630112151691 5 1188 27 1532
107 0.23280945741243853 -0.29428105755852774 7.6006487890695942 187 168 159 1.6569613956577529 5 1463 27 1536 4 1151 26 1667
108 0.33601716185351438 -0.28059838700150636 7.6159244052009898 87 67 49 1.7068402794481372 5 1467 27 1540 4 1154
109 0.25712233165343784 -0.19899795613828841 7.5757274372875552 226 185 162 0.82971882530000896 5 1473 27 1555
110 0.59925790523396327 -0.20137825043440283 7.6467988012314265 30 27 17 1.0150800712304409 5 1224 27 1556 4 1364 27 1782
111 0.061173955132861189 -0.040941207424250545 7.5002216816564404 255 234 205 0.86802237359844181 5 878 27 1580 26 1694
112 -0.44863984072811425 0.046536834384818121 7.338049180895422 112 113 114 0.35583818867152328 5 883 26 1308
113 0.91076419636531758 0.10534075698518608 7.6259889680816606 255 252 254 2.1787530689490597 5 1249 27 1592 4 1193 26 1706
114 0.38111830858490148 0.3562085733149139 7.4764181952856337 190 184 178 1.2816111208659526 5 936 27 1601
115 0.58214050851751142 0.66824526958320751 7.4127488492783513 160 163 158 0.36224284336999635 5 1277 4 1409
116 0.47402998463090978 0.77903172145009192 7.3488241434132107 94 101 100 0.58813952220894117 5 1280 4 1219
117 0.60927953893536935 0.81440038823654592 7.4062017119582668 130 138 138 0.7264137949963041 5 976 27 1627
118 0.70550784688887902 0.85818347438801856 7.4151693869724831 150 152 150 1.8756220978590319 5 987 27 1631
120 0.64823903462608778 1.133670322045593 7.3197483693291838 138 145 146 1.0085125760492604 5 1016 27 1653
121 0.70023948825240634 1.3315609086907729 7.2663348865557218 137 144 143 1.3197056187120486 5 1038 27 1671
122 -0.28940873408127182 1.4411256074313221 7.0095100495281919 189 189 183 1.1126915236742945 5 595 27 1681
123 0.083266605783660436 -0.55240542954899674 7.6067591647452781 173 157 146 1.2027916654259436 5 1412 27 1753 26 1880
124 0.22393104934605548 -0.52468521115849187 7.6323476130322341 197 176 166 1.0718858553888273 5 1418 27 1754 4 1331 26 1882
125 0.24527492230707471 -0.49588345301966213 7.6309889413682734 189 174 167 0.85733423201544012 5 1619 27 1758 4 1334 26 1883
126 -0.15138283415591786 -0.44571156317416832 7.5385146479209917 217 181 162 0.22576271959758601 5 1426 27 1759
127 0.49002157403475305 -0.32081739391637398 7.6524545687828613 48 50 46 1.4514918427239238 5 1728 27 1768 4 1502 26 2178
128 0.61611731212811727 -0.29258655598553884 7.6693862524439451 37 30 21 1.0704540260394539 5 1637 27 1770 4 1350 26 1901
129 0.64766631239452888 -0.2831782360195591 7.6732122688909845 31 33 24 1.1834233253046844 5 1468 27 1774 4 1155 26 1902
130 0.14328893751300778 -0.17968976662522956 7.5471762598634538 219 183 166 0.84433385433634367 5 1475 27 1785
131 0.29645749939696592 -0.15901309458814886 7.5754483441963938 226 188 161 0.63391261577107427 5 1484 27 1788
132 0.25797349513022183 -0.098443573707123325 7.5517222590558921 233 189 165 1.1453394603823703 5 1235 27 1796
133 0.41450168855543862 -0.081125710994931821 7.5836227497348192 189 170 159 1.3649223033529077 5 1492 27 1798
134 0.24399336922850587 0.088079649933724066 7.5105243209973169 47 34 17 0.61363970211641783 5 1506 27 1807 26 1925
135 0.81914196262138006 0.22468776212065564 7.5869258313634287 40 14 4 1.5526885822897545 5 1659 27 1812 4 1397 26 2078
136 0.81914196262138006 0.22468776212065564 7.5869258313634287 40 14 4 1.5526885822897545 5 1660 27 1813 4 1398 26 2079
137 0.86699684641168273 0.59512601549160749 7.5002845393420756 162 160 161 1.0678887676081894 5 1273 27 1829 4 1207
138 0.95508967198851358 0.59972282263551158 7.5219972456129538 28 42 33 1.5549374067943886 5 1274 27 1831
139 0.53649151895669334 0.77840574664366868 7.3641156615062249 95 102 101 0.86215416981758719 5 1532 4 1417
140 0.056782045811817311 0.93790015801943849 7.2579649276452365 8 15 7 0.11332142900101189 5 1288 27 1851
141 -0.24072423409458502 0.99489376514313155 7.164537728477999 167 175 179 0.50526963929515145 5 1293 27 1859
142 0.32784344898842377 1.1106242249052105 7.2609904652938972 145 148 148 0.24984517580586807 5 1308 27 1866
143 0.52353817968549099 1.1324228580108262 7.296964876101879 148 151 151 0.27683387972134182 5 1012 27 1868
144 -0.060494122745420702 -0.54669966749267995 7.577556563093097 38 28 21 0.78082844901950565 5 1616 27 1916
145 0.25061290348469667 -0.53130966367630317 7.638378846333076 45 46 39 1.2061851287360632 5 1617 27 1918 4 1490 26 2043
146 0.24620423235031902 -0.52970792186121307 7.642381514331098 45 46 39 1.0799506298871331 5 1618 27 1919
147 0.31670868403474889 -0.44232520129137226 7.637964294674461 208 188 177 0.42090864003811329 5 1725 27 1924 4 1494 26 2051
148 0.55109069061506288 -0.43934313466042829 7.6850603656302106 153 148 146 1.4373079820918262 5 1726 27 1925
149 -0.22243238580706853 -0.37598304566912394 7.5118655385937894 64 70 72 1.6948375036412211 5 1438 27 1928 26 2053
150 0.61945761374071651 -0.32169247810953311 7.673822765002897 251 246 248 0.99726493036105768 5 1633 27 1930 4 1501 26 2058
151 0.65866868172692061 -0.31037166324206711 7.6796494283533097 219 253 254 1.0745077990967613 5 1634 27 1931 4 1506 26 1898
152 0.70906541923390265 -0.25595855353589109 7.6774884842833417 62 67 69 0.48154619048220032 5 1730 27 1932 4 1613
153 0.27435624428234184 -0.032669401195079655 7.5410508062211568 181 175 180 1.0983283379680979 5 1497 27 1938
154 -0.29244707296950084 -0.012898161729058812 7.4048415891642394 254 248 250 0.024976429331987682 5 1647 27 1939
155 -0.29244707296950084 -0.012898161729058812 7.4048415891642394 254 248 250 0.024976429331987682 5 1646 27 1940
156 0.013896707772733091 0.02858116964264297 7.4795406363431312 249 245 237 1.9253296620031615 5 1649 27 1943 4 1521 26 2072
157 -0.029066745159137295 0.080823125576799312 7.4480990684098503 186 180 177 0.50694749569630027 5 1651 27 1944
158 0.8703069569894013 0.16540254711415622 7.6103927313087798 242 233 147 1.3604737756495942 5 1657 27 1946 4 1394 26 2074
159 0.30856715353741643 0.35318639017050091 7.4617214269870829 197 189 180 0.94704797579289102 5 1511 27 1954
160 0.31015085858671976 0.54176562551638363 7.4163542277257335 131 133 131 0.89403638691465037 5 1514 27 1965
161 0.10901928279897058 0.65733613226371812 7.3298191511637301 141 159 167 0.49094051826659035 5 1517 27 1967
162 0.82742579740406041 0.71302105236911173 7.4608391677675741 174 171 157 1.5604112044532112 5 1527 27 1970 4 1411
163 0.77582510052867781 0.77650497731114787 7.441988601114085 145 143 144 0.88574717118349233 5 1535 27 1972
164 0.97234444991158431 0.87275591961767285 7.4522561724391929 161 159 153 1.5458895604263654 5 1545 27 1976
165 0.042553489611617673 0.88025936239084124 7.2710112625762324 25 39 38 0.15964025119958533 5 1282 27 1978
166 -0.067340447720207738 0.9333434640686169 7.2326108357894734 192 213 228 0.30927455658756436 5 1537 27 1985
168 0.52570542064909909 1.0085875922968937 7.3367945885743913 159 160 154 0.64349887571030728 5 1548 27 1993
170 0.52600465549205466 1.1565718169259127 7.2870403904960153 112 118 119 0.36172047504559912 5 1556 27 2004
171 -0.17378857995163163 1.1513048965488262 7.147190158479706 132 140 140 0.5790076375165738 5 1552 27 2006
172 -0.11275980127876507 1.2673027118027473 7.1154512777367689 146 152 151 0.50379737826079118 5 1315 27 2011
173 -0.40665462344481978 1.3338592464083689 7.0126812591706749 152 158 157 1.8049797027990566 5 1316 27 2013
174 0.70401103832979994 -0.50506282529622337 7.7223372993234625 163 152 141 2.4642964730807644 5 1620 27 2051
175 0.038435568815180968 -0.49112571976084973 7.590032337312131 224 185 161 0.16256270651040153 5 1723 27 2052 26 2169
176 0.38026076704059975 -0.43354657557798226 7.6479245372216331 173 155 147 0.80714561935800044 5 1727 27 2059 4 1607 26 2174
177 0.61304379858878921 -0.26153251381148751 7.6687940328108093 180 147 131 1.7798606161120905 5 1638 27 2063 4 1512 26 2065
178 0.53443763265018907 -0.24497987797058873 7.639682354516375 83 91 94 0.0033913600036451852 5 1809 27 2065
179 0.67140096437225072 -0.24090423383286366 7.6694567482574429 147 141 139 0.93392273784200075 5 1731 27 2066 4 1615
180 -0.54655856535764025 -0.13715079099973787 7.3639957265929707 90 86 85 1.900094993308842 5 1640 27 2069
181 -0.11439316955536713 0.024635230541536525 7.4405214826233221 193 142 129 0.82197578741447996 5 1739 27 2071
183 0.31109148314212964 0.28785210483677981 7.4767332411318401 210 194 182 0.88159723746021812 5 1662 27 2079
184 0.46681632852151406 0.53297890811308113 7.4419818382057183 160 163 160 1.3276060727353807 5 1668 27 2083 4 1632
185 0.58935103442209136 0.68704736464685245 7.4359217274785987 164 164 159 1.2974386194234853 5 1671 27 2084
186 0.14121815327988835 0.68160948352378015 7.3429916707874341 43 47 41 0.7998759974344809 5 1751 27 2085
187 0.36708831837215783 0.69367233967866992 7.3552258674561681 145 145 143 1.3051344292992404 5 1670 4 1637
188 0.21583883598177253 0.7913103598503366 7.3337245452290736 162 159 155 0.49587548399607745 5 1526 27 2090
189 0.31674122574967212 0.82195896350057307 7.350613753512107 156 154 147 0.9643820864171232 5 1675 27 2093
190 -0.11111119657815099 0.81592291819634666 7.2516888484493851 53 61 62 0.86570092197249382 5 1525 27 2094
191 0.55012445255340026 0.85575398858125518 7.338326234673989 131 137 136 1.0495549577098251 5 1683 4 1542
193 0.3832537772128109 0.92390978369472565 7.3167620073200998 98 108 108 1.8194641547081909 5 1685 27 2099
194 0.020548824462933275 0.91978850378118959 7.2551185725168956 168 187 199 0.41686670462008923 5 1679 27 2100
195 0.70569408621904672 0.9541496109312716 7.3433323518589999 110 116 115 0.51644244006241435 5 1549 4 1551
196 -0.49985987847786967 1.0386034591723599 7.0849542120214002 156 164 170 1.4225183995699608 5 1542 27 2109
197 -0.35510913590447429 1.251259339244041 7.0543333776517585 129 138 138 1.3072956033313747 5 1555 27 2115
198 0.05388447437668175 -0.5247587125022688 7.5962869218647819 47 42 30 0.73047292953913068 5 1788 27 2150 26 2266
199 -0.082491463853090488 -0.51091244654920165 7.5662647139273407 221 180 161 0.26419096252368024 5 1787 27 2151 26 2265
200 0.33433322482729305 -0.52482370893111008 7.6511359872767333 192 171 159 1.2830588977835786 5 1789 27 2152 4 1683 26 2267
201 0.42380121694611167 -0.4552967171688736 7.6595193088357663 91 89 83 0.81354491059554856 5 1796 27 2156 4 1605 27 2055 26 2172
202 0.42332909704420552 -0.45554498781290315 7.6597860548791115 91 89 83 0.95434132979257724 5 1797 27 2157 26 2173
203 0.66485012058056714 -0.43279472210749825 7.6971869719402193 255 253 251 2.3158032528840362 5 1799 27 2158 4 1696
204 0.71505907365571719 -0.37085014814706896 7.6947438535693893 172 150 140 1.4465666031716775 5 1802 27 2163 4 1700 26 2275
205 0.19047139420633119 -0.35126057299202967 7.6010293104583866 212 174 156 1.2448189115270958 5 1801 27 2164 4 1701
206 0.002021630460606048 -0.30356949224515156 7.5497149142672297 109 96 94 2.2750053875570582 5 1859 27 2166 26 2349
207 -0.06490514746688493 -0.28200387511650321 7.5317306017909766 193 172 162 2.4155486727261231 5 1860 27 2168 26 2350
208 0.36825973578439331 -0.30621425061932922 7.6296829926411958 187 168 159 1.9850138834162063 5 1805 27 2169 4 1706 26 2279
209 0.36825973578439331 -0.30621425061932922 7.6296829926411958 187 168 159 1.9850138834162063 5 1804 27 2170 4 1705 26 2280
210 0.58150621729816432 -0.29292073741756819 7.6647247690116203 26 31 25 1.2381271156953515 5 1806 27 2172 4 1707 26 2281
211 0.42306072718823751 -0.2519821927906879 7.6232229585575633 81 76 72 0.20339101273859722 5 1808 27 2174
212 0.024334719336975171 -0.17416923852700444 7.5148608825242533 221 186 172 0.57779143546054923 5 1733 27 2176
213 0.59037951644404174 -0.17951127851338169 7.643372337738926 73 73 68 1.9890312908132726 5 1812 27 2178 4 1711
214 0.02772708069521241 -0.029965172475285975 7.4908097620668466 175 176 180 1.2773122362035014 5 1815 27 2181 4 1712 26 2355
215 0.86936950803326685 0.12293988634498777 7.6223592887684255 95 65 41 1.5078442829864316 5 1818 27 2185 4 1715 26 2294
216 0.84228016767233549 0.18576182743211808 7.5979324675682767 255 252 155 1.5388971417880994 5 1819 27 2187 4 1717 26 2295
217 0.69944628576876267 0.35170397806659776 7.5377803099254406 188 185 180 0.94294407000478297 5 1820 27 2192 4 1719
218 -0.44263789116551511 0.70900437666472493 7.2034686490607909 15 27 22 0.088160997835120922 5 1750 27 2200
219 0.90558194140554038 0.79872681664994416 7.4537231321790278 116 121 120 2.2734335058073705 5 1831 27 2201 4 1643
220 0.95133111478400001 0.95498181692603945 7.3967672639781918 106 113 112 2.2036240164341989 5 1762 4 1652
222 0.82681761312590252 1.0414194611643899 7.3793475462980682 134 135 136 1.1724207046203898 5 1763 27 2209
223 -0.39698670868983782 1.0526335208517135 7.1083013335693739 109 118 118 1.0807282512968082 5 1686 27 2210
224 0.18513097390966921 1.1560161338419057 7.2207616409371083 93 106 106 0.29544199827269668 5 1765 27 2213
225 0.18513097390966921 1.1560161338419057 7.2207616409371083 93 106 106 0.29544199827269668 5 1764 27 2214
226 -0.26238917957685737 1.2184524036818609 7.0923144701948999 128 134 133 1.4515708735915025 5 1696 27 2216
227 0.77163747909841562 -0.4186479866249524 7.7137560556122953 174 151 137 1.8093670735239691 5 1858 27 2235 26 2343
228 0.44842562268528041 -0.38754326365877584 7.6547406113569343 174 157 144 0.60840075201315147 5 1893 27 2237 4 1756 26 2345
229 0.58258087060526564 -0.34793605927764226 7.6720068532224976 255 253 255 0.91991363532640502 5 1894 27 2238 4 1757 26 2346
230 0.58258087060526564 -0.34793605927764226 7.6720068532224976 255 253 255 0.91991363532640502 5 1895 27 2239 4 1758 26 2347
231 -0.2167230194577128 -0.027932522269044493 7.4319825989744643 230 208 193 1.3832710393857854 5 1862 27 2241
232 0.28710496830399423 0.19804002189988792 7.4923916718139028 166 168 167 1.1293338927952681 5 1865 27 2245
234 0.58441782710424051 0.4935636932507052 7.4836869260959453 138 140 138 2.0716026768771343 5 1823 27 2248 4 1774
235 0.58954723337205406 0.62115800404067523 7.4519630819793212 126 132 131 1.0516842245481737 5 1825 27 2250
236 0.47097859882911747 0.71875455955047096 7.4048526156708538 168 161 149 0.17613230113611925 5 1869 27 2252
237 0.38248586794876099 0.80227174140262747 7.3689419929707061 158 157 151 0.29948190713668044 5 1826 27 2253
238 0.78023065372669043 0.84813085257927789 7.4003321480081858 153 152 149 0.86625610432340061 5 1832 4 1780
239 0.13780489948860133 0.98305437291918485 7.2611126526573164 103 112 112 0.7705737134954973 5 1758 27 2256
240 0.45129291907567221 1.0774823241345077 7.3009766930446771 114 121 122 0.925582473211219 5 1836 27 2258
241 -0.1487230641710614 -0.099831669813498863 7.462923350770363 183 168 162 0.23577174354693861 5 1897 27 2275
242 -0.041943135532682647 -0.10825747590314759 7.4891986574866456 116 100 98 0.39217049777946389 5 1898 27 2276
243 0.21712325310092973 -0.066059819298974615 7.5429280924493431 208 152 126 0.15988875875444974 5 1899 27 2278
244 0.38209259034177295 -0.058157495812831896 7.571407687780999 50 41 26 1.4149370790695008 5 1900 27 2279
245 0.38209259034177295 -0.058157495812831896 7.571407687780999 50 41 26 1.4149370790695008 5 1901 27 2280
246 0.44660632420155927 0.57455537646766808 7.4377390171912063 176 172 160 0.93471528748802157 5 1867 27 2287
247 0.86525584672705669 0.78239302233714902 7.4595513172067047 129 132 132 2.0717604742057674 5 1910 27 2288
248 0.77387313335149832 0.79075911330018023 7.4145195936071069 49 56 54 0.38208261128629006 5 1829 4 1725
249 0.77387313335149832 0.79075911330018023 7.4145195936071069 49 56 54 0.38208261128629006 5 1830 4 1724
250 0.20133623897840958 0.84195953409835 7.3147670222965759 100 107 106 0.02213763990970587 5 1827 27 2291
251 -0.33954950427642522 1.3590619911907524 7.0170002384641537 126 139 138 1.9553232551243105 5 1839 27 2295
252 0.52859196592098734 -0.42313495189629752 7.6731266200400698 49 46 36 1.0695929506354329 5 1920 27 2303 4 1828 26 2422
253 0.14892583994955971 0.59362936663626031 7.3693488134685774 166 164 156 1.5933043724912044 5 1904 27 2307
254 0.28270668891281214 0.68337647882350461 7.3743175503289748 112 114 113 0.32026379565188584 5 1907 27 2308
255 0.1173043685633664 0.76593780719456706 7.3146888310357081 140 143 142 1.6397116077331655 5 1908 27 2310
256 0.77270397133157009 1.0856855424711773 7.3587112056125132 21 34 33 0.973971982596325 5 1940 27 2314
257 -0.24115943396196984 1.1343718735089006 7.1225531027455231 146 151 150 1.6429486125893003 5 1872 27 2315
258 -0.41355677928762213 1.1737726921493032 7.0663779098310924 136 142 142 1.7740300791125896 5 1873 27 2317
259 -0.23002293520338518 1.2349222345242108 7.0994011089771059 116 123 124 0.57533268750382549 5 1874 27 2319
260 0.69775812957791106 0.19964035628330376 7.5716706962391767 255 255 149 1.5920894127001 5 1952 27 2323 4 1856 26 2438
261 0.0036330335806268824 0.81056316218482716 7.2803882118087282 27 37 35 1.2818273831971962 5 1928 27 2326
262 0.0036330335806268824 0.81056316218482716 7.2803882118087282 27 37 35 1.2818273831971962 5 1929 27 2327
263 0.41508067680893684 0.87227480754225284 7.3562705705301505 39 56 58 0.85774445005957645 5 1911 27 2328
264 0.7200826144345347 0.88672205876796706 7.3761949269793119 154 154 147 1.8059643670541297 5 1936 4 1860
265 -0.40996410222977314 1.0729861951827435 7.0920259284550022 96 104 106 1.4764024222847203 5 1913 27 2335
266 0.21679977845727394 0.25642504273959099 7.4636042125941078 169 168 170 0.092034371340902005 5 1960 27 2341
267 0.083960360395172781 1.063506707697234 7.2235074217218083 156 159 156 1.5020940423589999 5 1938 27 2343
268 0.36073569172665487 1.2013916265492413 7.2353754219782322 20 32 28 0.051361963216088394 5 1941 27 2345
269 0.36581007401699817 -0.41708240902858384 7.6480479448068053 126 113 88 0.65893637326554999 5 1970 27 2357 4 1892 26 2463
270 0.42120441710007972 -0.78299190141057673 7.5495360705375187 213 205 204 0.56881654772208867 27 132 4 33 26 214
271 0.29044147970153483 -0.77899720857523036 7.5291377413736242 10 15 12 1.4741134196538503 27 131 4 36 26 213
272 0.27964542367303091 -0.77095952889762021 7.527085976356326 203 205 215 1.282960773150611 27 139 4 41 26 217
273 0.4991834317139382 -0.75064100589483895 7.557065945607099 150 156 158 0.69635441849317736 27 154 4 51
274 0.63215032126670379 -0.68516624859628961 7.5566136214701238 121 139 145 0.54999179615382843 27 182 4 68
275 0.32478874659160017 -0.66207038251165173 7.5683683157841344 22 20 17 0.80863432474939334 27 196 4 77 26 1159
276 0.8608124553247285 -0.52101357446567387 7.6111987292306438 35 44 47 1.4194884289665144 27 263 4 113 26 407
277 0.32282239667982987 -0.50776720558871191 7.6465305808515938 191 187 183 1.4817864247401211 5 60 4 146
278 0.39997873086647118 -0.47429531854814544 7.6270357442432832 165 162 155 0.39484242050129631 27 319 4 158 26 456
279 0.42902941715586301 -0.46815234693554586 7.6339915536217289 170 164 159 0.42149768875055371 27 324 4 160
280 0.66427756422500428 -0.43874174561852169 7.644836166836428 254 252 254 1.0618070851262176 27 1132 4 170 26 1212
281 -0.44232244568378182 -0.39190823891178994 7.4945286574055148 188 176 176 0.47646826582830998 27 351 26 496
282 0.62444629375797644 -0.43530129758211056 7.6912139113622864 81 91 91 1.9024956162047548 5 97 4 190
283 -0.33085969072695509 -0.36027873025969775 7.4913888479934894 184 168 167 1.4558153366141255 5 102 4 198 26 505
284 0.25919934423972729 -0.37259330306400229 7.6180770903358974 27 17 6 0.78177579703415678 5 119 4 204
285 0.28542818595473446 -0.37777149356044232 7.6486548733486988 26 21 11 0.54687392298123727 27 373 4 209 26 515
286 1.1833352801225547 -0.29901436244266838 7.5950781998345169 104 116 119 1.5220828077389688 27 376 4 212
287 0.30143918730810593 -0.37473542515919733 7.655202712179336 40 33 28 0.60516421606081594 27 377 4 213
288 0.31355023081680822 -0.37189966849618161 7.6561305351493525 39 31 21 0.64594804733873945 27 381 4 216 26 522
289 0.21770566243325815 -0.33679604870596369 7.6051202134731524 74 60 53 1.5380120327368361 5 136 4 221
290 0.62982676677332428 -0.30973936117948764 7.6746993560229475 211 250 250 1.4917610711140317 5 153 4 229 26 538
291 0.69531347250223996 -0.29808844365583342 7.6585081254964198 214 255 255 0.52477739606224583 27 1172 4 230
292 0.26557214304940752 -0.31983702344455134 7.6646529030586201 88 73 61 0.61019076762185054 27 400 4 231 26 546
293 0.7212576018580521 -0.29187573571869174 7.6710726229624298 204 245 254 0.517633194953387 27 407 4 234
294 0.26487058070231234 -0.26665625623967393 7.6017296638467382 102 96 91 2.502867779325733 5 837 4 242
295 0.69549173775217521 -0.27335765413388285 7.6773008472687856 25 38 38 0.29736148258586015 5 163 4 243
296 0.29013381196251736 -0.2916610290373261 7.6976610228583411 102 96 91 1.3857746259278603 27 419 4 244
297 0.25969535091195989 -0.25431183934280976 7.5983542851377557 209 194 190 2.6489666525283067 5 164 4 247
298 0.74030118727977723 -0.25329891387057207 7.6731475123637285 22 44 45 0.43726197332449868 27 425 4 249
299 0.70216033966664415 -0.22969259466978093 7.6916665242759308 117 122 127 0.57424460584374659 27 441 4 258
300 -0.57297939260867481 -0.13395293227589541 7.388253768052965 44 43 41 0.66003792771979808 5 174 4 266
301 0.35353410686622511 -0.18868784972154787 7.604107549679882 206 186 175 2.978475535027278 5 186 4 274
304 0.35247393584972569 -0.17857847986908082 7.6839743532322595 254 255 255 1.5774766043994217 27 1194 4 290 26 622
305 0.44436839815315432 -0.16887386927638848 7.7326715060934994 16 24 21 1.3700355408045457 27 476 4 296
306 0.41420450606898507 -0.14768412961520241 7.7280206142083445 16 22 18 1.6663224057720925 27 498 4 303 26 643
307 0.66309398464628944 -0.10319867574365339 7.6366217230595144 0 0 0 1.2285086997516947 5 245 27 500
308 0.42097034580344295 -0.14022825011797971 7.7508450721701552 182 169 162 1.816375670533396 27 1204 4 309 26 651
309 0.3932627444744114 -0.11080151875488926 7.7105654649693856 173 167 159 1.8668325281592446 27 532 4 317 26 665
310 0.058745539909936174 -0.039919394353213136 7.4919261855852737 254 241 224 0.70516478278222283 27 550 4 325
311 0.043913325740235834 -0.031761685408930859 7.4959469273963704 32 27 6 0.21206817011712831 5 263 4 329
313 0.49216948382013676 -0.025060904420006143 7.5866324988754661 7 4 2 0.22137429740938475 5 283 4 338
314 1.1820022857805985 0.014463003723836692 7.5897849700654962 66 33 16 1.8849861317780396 27 560 4 339 26 676
316 0.71891434638073792 0.088047452465192563 7.6060882876065392 67 46 18 0.31000352361066941 5 325 27 607 4 376
317 0.30303017528622828 0.1038510287897432 7.4940164468632666 255 239 217 0.67998809696150309 27 609 4 380
318 0.88222299084215705 0.11173751226754933 7.6006907200706815 251 242 230 1.2254425801548963 27 1243 4 385
319 0.77748504898941107 0.1141407099351513 7.6105815825005019 65 35 8 0.024334204178203495 5 338 4 388
320 0.77748504898941107 0.1141407099351513 7.6105815825005019 65 35 8 0.024334204178203495 5 337 4 389
321 0.89424952883205322 0.11782001519577294 7.6277492559901861 52 22 10 1.0403836123690569 5 342 27 616 4 391
323 0.59353592374714059 0.24009016024625535 7.5309818477115318 255 245 228 0.15378253541577069 27 653 4 426
326 0.86630754224139395 0.33632247136891008 7.5660599779958391 255 243 221 0.19278541590196141 27 691 4 451
327 0.5984927838156352 0.37089140672823223 7.4981847142801614 110 114 116 0.10441487558380552 27 1283 4 457
328 0.50523170027104181 0.39712207673943689 7.4825080023364912 9 21 18 0.35371924430125956 5 415 4 464
329 0.62686470520815607 0.40455318375463023 7.4767869069662858 163 171 172 0.134929653354673 27 1285 4 465
330 0.71844722599528477 0.47533655110490186 7.5035953918698759 171 174 174 0.44606699723540555 5 437 4 475
331 0.75326424246095958 0.61796154202530096 7.467992996858734 5 13 11 0.18061460901097109 5 471 4 495
333 0.78684846583704759 0.73515001112651646 7.3541639395411034 181 183 182 0.8115019313776628 27 795 4 513
335 0.0537535477002535 0.8632980664087565 6.8668832927891623 10 20 24 0.27643182149456735 27 826 4 523
337 0.048242305431767961 0.88677355510805711 7.1999136945222864 161 184 194 3.6042923028841325 5 515 4 555
338 -0.41043351613428125 1.0246512168356323 6.5995415588574247 185 207 222 0.085317160692771343 27 875 4 562
339 0.40892187930171969 1.1599538192328049 7.184458440009613 52 64 59 0.066755303373984776 5 572 4 623
342 0.81283268159107502 -0.80239123581956839 7.4847391064611042 122 126 129 1.3006813340564438 27 1042 4 742
343 0.27254265521178361 -0.78721040239354256 7.5330349044649632 53 50 48 1.7879647847817794 27 125 4 751 26 209
344 0.45504969945369783 -0.7459120098871368 7.5342794342289228 128 136 137 1.2436341414550474 27 1072 4 761 26 244
345 0.30286720101693609 -0.65241809981694732 7.5958529558558245 191 191 196 0.088134165910572645 27 1103 4 780
346 0.25842290988864325 -0.44868304083035732 7.6328588128070223 204 189 184 0.56219019422903338 27 1136 4 801 26 1215
347 -0.40120836409376498 -0.36258234276816254 7.4798206312688738 170 154 147 0.22334870755212477 5 1170 4 809
348 0.22039370975515152 -0.40871066202757106 7.619936526048412 190 169 166 0.38097684491789519 5 812 4 810
349 -0.45535876699929978 -0.32860411377997883 7.4622847851877054 165 145 142 0.25640089160987356 5 814 4 817
350 0.57287522855982698 -0.38590353087155282 7.6719406801708088 89 96 96 1.4334412529476233 5 1182 27 367 4 818
351 0.56429262671069891 -0.36230821276787339 7.6683752749366336 248 252 249 0.52925267095897444 5 824 4 827
352 -0.57676490973811423 -0.27026244217001638 7.4208098898216441 207 194 189 0.48790490856213231 5 125 4 831
353 0.28903581307263221 -0.30200869904777 7.6822464859139341 178 168 162 1.3063590288215923 27 1175 4 839
354 -0.25401847642429637 -0.046636407884829839 7.4352543782928429 224 215 217 0.90892932150474026 5 1236 4 880
355 0.31731785516619693 -0.089395054575853616 7.687778599986224 16 24 18 1.7543456053924247 27 1578 4 884 26 1294
356 0.75650270855532686 0.10525496724675946 7.6088062586312946 46 23 1 0.24989413546605449 5 907 4 919
357 0.7583615694676461 0.10284118284658619 7.6056749799973717 46 23 1 0.71882825967951047 5 908 4 920 26 1317
358 0.85648061712318624 0.14718494150868752 7.6156495248876119 73 47 19 0.61217452743700229 27 1249 4 922
359 0.40843291430441242 0.207096576691605 7.5093595764597065 11 15 13 0.3295672033554814 27 1260 4 927
360 0.77230842266192457 0.21609776877240558 7.5589019466960856 67 15 0 1.4121339463372284 27 1810 4 928 26 769 26 1933
361 0.41283383749147456 0.50539440676227732 7.3465192226966582 53 65 64 0.098235450861605844 27 1607 4 958
362 0.70554160130104104 0.49906646243600106 7.4570672669432296 8 16 10 0.0017156285938465057 27 1293 4 960
363 0.70554160130104104 0.49906646243600106 7.4570672669432296 8 16 10 0.0017156285938465057 27 1292 4 961
364 0.25717119743109129 0.65052410424393659 7.3371098791935019 98 104 107 1.8908340264602008 5 964 4 969
365 0.79093691195035809 0.7151892686935184 7.4429607997573166 180 181 179 0.017071685192525818 5 972 4 973
366 0.74365112489286933 0.9434491423269793 7.220027130196236 151 160 159 1.9264240465202578 27 1633 4 987
367 -0.45105172403969251 1.032751224956195 6.5581939460499088 194 207 221 0.7273301905129268 27 1359 4 991
368 0.54979839131037578 0.98871511471054663 7.2885874128162573 126 134 136 0.97755327471023323 5 998 4 999
372 0.72853336751076914 -0.81834161960279883 7.5320069666848397 27 21 17 0.99153694738360043 27 1444 4 1086 26 1560
373 0.66762392326900799 -0.77919050150675018 7.543624665815166 99 87 83 1.0653134488370923 27 1450 4 1091 26 1565
374 0.53183997896360713 -0.77040941077676495 7.5357741525571207 171 168 170 0.8161463563373893 27 1455 4 1093 26 1566
375 0.62926528713707841 -0.67870666842575023 7.5780713396878099 0 6 0 0.65858765120374296 27 1467 4 1097 26 1584
376 0.77439126562045346 -0.62952525408516102 7.6028659781471024 42 40 38 1.0845769884358354 27 1475 4 1102 26 1163
377 0.63968177033034923 -0.6147773491430093 7.5958909268187558 173 171 170 0.51569758194878312 27 1478 4 1104 26 1599
378 0.63968177033034923 -0.6147773491430093 7.5958909268187558 173 171 170 0.51569758194878312 27 1479 4 1105 26 1600
379 0.62785276560146608 -0.59050433788564238 7.6000182139365675 168 164 169 0.33982049895964656 27 1488 4 1106 26 1603
380 0.66754288419637198 -0.57459233423251266 7.6058193724338032 166 164 163 0.48420086579859878 27 1492 4 1107 26 1607
381 0.25535581316830636 -0.58727509177892934 7.6462270094163989 164 158 156 1.3093149588277258 5 1410 4 1112
383 0.379156052044124 -0.42564903984274832 7.6453871096950401 199 190 183 0.68847971880061287 5 1175 4 1131 26 1642
384 0.59345864021162709 -0.41292397067242209 7.6792833475163498 51 56 59 1.2145235205297567 5 1443 4 1132 26 1643
385 -0.53887111415872835 -0.31962750799809486 7.4396314492292337 162 147 138 0.37726872197962746 5 813 4 1133
386 0.66835232931236999 -0.3474424203899133 7.681714572981166 146 135 131 1.5896389422560191 5 1189 27 1766 4 1141
387 0.46761377890669298 -0.28812672690349772 7.6442973643179855 86 85 81 1.4093206578957225 5 1204 4 1153
388 0.45814639603737783 -0.2744560293846105 7.6203115337131928 0 0 0 0.77954786155243383 5 1209 27 1176
391 0.30721865334447812 -0.19282036658629162 7.5837832145941038 0 0 0 0.46361281332758086 5 1476 27 1557
395 0.54354850665163357 0.75150382175268071 7.2455549544269697 166 166 161 0.97188667321868116 27 1839 4 1216
399 -0.30796956910265888 1.4520753868206062 6.9963127142237935 0 0 0 1.7718781458989574 5 1036 27 1884
401 0.36408875884884501 -0.83333907260198248 7.5187710557839758 101 86 76 1.36588400011072 27 1708 4 1301 26 1559
402 0.71782982101538328 -0.79370288245138498 7.5170487084977005 157 150 150 0.42525140791503779 27 1711 4 1302
403 0.72633669984151594 -0.76603534055824052 7.536502167973107 149 150 148 1.2284652421644298 27 1453 4 1303 26 1832
404 0.46519364968263777 -0.71654525451333928 7.5662032226509659 142 140 143 0.79579276599996862 27 1724 4 1315
405 0.77292964413609488 -0.68933162436726136 7.5671159028949209 37 40 40 1.0048063266630505 27 1726 4 1316 26 1845
406 0.72158172329140235 -0.68934955544833021 7.5684772197662422 137 138 139 1.0018991829886159 27 1729 4 1317 26 1847
407 0.7440956143770654 -0.66669393196162818 7.5816997806992408 103 109 112 0.9212901382164832 27 1735 4 1321 26 1851
408 0.61165564331916134 -0.62120818960304514 7.5766229953627677 180 180 186 0.52389793172820798 27 1743 4 1323
409 0.55654670404415785 -0.50004805415092712 7.6850681500484646 157 158 160 2.260096985491991 5 1424 4 1335
410 -0.16749483839716686 -0.40188142028154417 7.5375935812928159 213 184 166 0.48634090162693799 5 1434 4 1338
411 -0.48641602346318685 -0.32067740302543024 7.4500873694643843 151 133 127 0.043321176907439356 5 1625 4 1342
412 0.19877149525929103 -0.34404470345745192 7.6009871917178327 200 175 164 1.4376460904582391 5 1452 4 1343
413 -0.54863491695509425 -0.24310207055181116 7.4192312957231659 34 41 43 0.17374503342112788 5 1632 4 1346
414 -0.26522524380431228 -0.25291289655731974 7.4886068505678383 214 198 189 1.8930683697413309 5 1462 4 1349
415 -0.16344375544689865 -0.24193211815382432 7.5079838135148211 169 149 143 1.9547580158016431 5 1203 4 1356
416 -0.28324776400938689 -0.2129226639487142 7.4751849460945445 185 161 147 2.0360071346145348 5 1469 4 1357
417 0.14113895685529795 -0.2075802324928491 7.5659249901771046 213 187 170 2.9946053152076066 5 1471 4 1361
418 0.24454288681442535 -0.19423155813772142 7.584897571373812 216 182 166 3.0852791734788116 5 1474 4 1363
419 0.33306145385153291 -0.18197116896165066 7.6000372292534291 217 183 165 3.1297079312377987 5 1477 4 1368
428 0.3887131165928579 0.53474527680241679 7.41263123446981 172 175 175 0.72944257093374465 5 1515 4 1407
429 0.48592210893558024 0.80893537370044633 7.3388159490692404 108 120 123 0.74802053425930715 5 1285 4 1419
431 -0.20825993314076513 0.98526362845995907 6.714284996775592 186 214 235 0.33256652404170051 27 1989 4 1422
432 0.54931747097781791 0.9040542123211619 7.3205381057090326 162 168 167 0.96881531601138504 5 1296 4 1424
433 0.58257430355139272 0.98070517714794903 7.1361536581798966 167 169 167 2.5057205220155914 27 1852 4 1428
434 -0.31329618346587773 1.0366576042894482 6.6372880077269967 158 174 185 0.32827829156880983 27 1998 4 1429
437 -0.27528723711746172 1.1841398033920163 7.099492680884306 0 0 0 0.51728385152452994 5 1310 27 2112
438 0.45157983482792208 -0.74095873191145145 7.5593119433607789 26 29 24 0.64778163543909273 27 1716 4 1469 26 1839
439 0.5535023159885164 -0.73065115537501657 7.5498313631817533 147 145 144 0.88621225684425775 27 1717 4 1470 26 1840
440 0.56611495772219111 -0.70418259444891207 7.5624533175056676 14 19 13 0.74178717078704326 27 1899 4 1471 26 2030
441 0.56611495772219111 -0.70418259444891207 7.5624533175056676 14 19 13 0.74178717078704326 27 1900 4 1472 26 2031
442 0.96371926804174401 -0.6199711166826859 7.6095958265806818 51 69 76 0.15623192672873087 27 1909 26 2038
443 -0.63119486468614527 -0.33163715315964487 7.4207336266703692 163 138 130 1.7822572885553674 5 1624 4 1497
444 0.34495903063435029 -0.3574881602625169 7.6644147161629625 79 68 62 0.80236871454836489 27 1929 4 1499 26 2057
445 0.47592370447444604 -0.35167030991399328 7.6530969735833283 170 156 145 0.66813356906318788 5 1631 4 1500 26 2056
446 0.4578616323061479 -0.2821040384088927 7.6439106490809978 86 82 82 1.6810220633850721 5 1636 4 1508
447 0.35540489855842278 -0.26277030032069709 7.6182823379845042 81 74 69 1.895708205450426 5 1729 4 1510
450 0.56208244437237265 0.39348770198906846 7.4867384728963327 158 161 163 0.40372888116939065 27 1956 4 1528
451 0.96836266744183197 0.40624067485841892 7.5624829876477051 26 22 11 0.75898741888124177 27 1957 4 1530
452 1.0021275294148182 0.41785824826704165 7.5659177863941549 53 51 35 0.79960822261206499 27 1958 4 1531
453 0.78022055646468713 0.48968131384461921 7.4679867026703777 144 149 151 0.22910770712873746 27 1960 4 1532
454 -0.49214301867817994 0.7697139030791843 7.2139956887585317 0 0 0 1.0835722633301361 5 1669 27 2092
455 -0.14737659640680159 0.82648246838922923 6.8574668391352773 55 73 76 0.48353172157989299 27 2091 4 1535
456 0.47883102824896911 0.83810152462309684 7.330677843937738 41 59 58 0.91776629829656509 5 1682 4 1538
460 0.20205869664906614 1.4443635605931222 6.9918410901008956 155 165 165 2.6481773335318666 5 1571 4 1572
461 0.12557768161784449 1.4649939819940798 6.9601303278472839 164 171 172 3.228114143423328 5 1572 4 1573
462 0.63386040113494757 -0.79808819563507327 7.5571587065850858 103 98 95 1.0557256855495289 27 1894 4 1578 26 2019
463 0.6449417532974544 -0.76400452957979859 7.555750937296918 182 178 174 0.50271406926526685 27 1895 4 1581 26 2023
464 0.36323978033222076 -0.77167594028581543 7.5432045120783231 74 92 93 1.45379596349155 27 2030 4 1582 26 2143
465 0.50086676258872598 -0.75223493836598565 7.5356529385699647 149 146 145 1.0256757866598167 27 1896 4 1584 26 2026
466 0.49015988978373631 -0.72771740855099221 7.5480626627606942 39 39 34 0.7641029799802137 27 2035 4 1586 26 2147
467 0.43830104936413106 -0.65877670801569321 7.5842365330384007 170 167 169 0.059561299237330528 27 2040 4 1588
468 0.98135310542417364 -0.60936333747235549 7.6861364105272658 150 127 118 0.077577204307003489 27 1910 26 2153
469 0.98135310542417364 -0.60936333747235549 7.6861364105272658 150 127 118 0.077577204307003489 27 1911 26 2154
470 0.91597320070959243 -0.54482086631705395 7.6227455516584737 172 155 144 0.23035004172678641 27 2044 26 2156
471 0.91597320070959243 -0.54482086631705395 7.6227455516584737 172 155 144 0.23035004172678641 27 2045 26 2157
472 0.37334385266656572 -0.46159241153171721 7.6259835407299361 69 69 68 0.12441241250212536 27 2053 4 1604 26 2170
473 0.66104299238285713 -0.41209677827559582 7.6286042810857522 255 253 251 0.23332729024686022 27 2060 4 1608
474 0.30343168370374757 -0.31998278006763248 7.6197715457864383 158 155 153 1.7056844807851201 5 1803 4 1610 26 2177
475 0.4236750109049251 -0.32337069349731234 7.6852494433147438 153 145 145 1.1221747007397 27 2062 4 1611 26 2179
476 0.42278463874905808 -0.27469030574754705 7.7027017140538652 103 105 103 1.2184437930061962 27 2064 4 1614 26 2181
477 1.0841497099135349 -0.19515036913904438 7.6789665641164113 83 91 92 0.73549573670142199 27 2067 4 1617
478 0.56062517121813027 -0.20618338895062152 7.6451754645219046 176 158 148 2.2362126484130398 5 1732 4 1618
481 0.79467353514009786 0.62019996933605048 7.435044246829154 133 140 139 0.24778764458668201 27 2195 4 1633
482 0.79467353514009786 0.62019996933605048 7.435044246829154 133 140 139 0.24778764458668201 27 2196 4 1634
486 0.31299996274813302 -0.78718209149863694 7.5384533051211982 81 94 104 1.3070360477938625 27 2135 4 1673 26 2248
487 0.40495478201522594 -0.76079895883434856 7.552152560938179 52 66 69 1.2753139440274144 27 2031 4 1674 26 2145
488 0.70214687402428599 -0.66089537394179576 7.5756234410361198 38 37 38 1.0114904619433973 27 2141 4 1677 26 2258
489 1.1295139975647119 -0.5059865098241314 7.6620721611261455 82 91 93 1.8784585478909051 27 2148 4 1678 26 2263
490 1.0744775551355039 -0.44997649787906013 7.7061630020219694 87 101 109 0.64531679652120344 27 2155 26 2268
492 1.0343944733643042 -0.30193176212259681 7.6647442066275566 88 99 100 0.13525865433469381 27 2165 4 1702
493 -0.094913028948037825 -0.19872544594337535 7.6300197445958737 163 148 144 1.6289113100141506 27 2177 4 1710 26 2285
494 0.47321804778830184 0.43621397854621946 7.4635074926853635 173 173 173 0.76992700568413519 5 1821 4 1720
499 0.77201220454718111 -0.65060035668996818 7.6166932422078109 32 38 36 0.076230960894449903 27 2228 26 2259
500 0.46297411557336521 -0.58609442055633454 7.6154460913873008 170 166 165 0.39269586626411396 27 2230 4 1749 26 2339
501 0.47328396779994525 -0.47902726326732081 7.6302974167819144 164 153 147 0.17180952822091722 27 2233 4 1750
502 0.57534931920962673 -0.48169823550811885 7.6905241517025944 150 150 153 2.1850567172357547 5 1852 4 1751 26 2342
503 0.85372266171859135 -0.070336369188526954 7.582304154299039 248 204 187 1.5726741775891655 27 2277 4 1763 26 2351
504 -0.096076147954208296 -0.050444560458244928 7.5657701996155762 255 252 255 1.8901877875260908 27 2242 4 1766 26 2356
506 0.4376687324811756 0.66484108426612765 7.2581470625481908 48 61 61 0.40652342040984296 27 2251 4 1777
507 0.42427340441419598 1.0786809179477501 7.2184593386665838 155 162 164 2.0318585362878867 5 1837 4 1782
508 0.72646753842133671 -0.71208851336242507 7.5586670099704971 139 135 134 1.0019437585297764 27 2264 4 1796 26 2387
509 0.62618208022716548 -0.63035027778994079 7.5925411572533594 173 171 176 0.47406531207742081 27 2267 4 1798 26 2390
510 -0.58601726789363839 -0.2861453190575961 7.4220724928739967 206 199 197 0.99084122125749663 5 1891 4 1801
511 -0.58601726789363839 -0.2861453190575961 7.4220724928739967 206 199 197 0.99084122125749663 5 1892 4 1802
512 0.89875426250882862 0.19092089446639984 7.5608719767375918 255 255 169 1.0522826457440662 27 2284 4 1810 26 2403
514 0.78185102656247929 -0.58824052854555364 7.6364692528713061 129 129 130 0.44542785766348519 27 2268 4 1826 26 2392
515 0.90721890558046747 -0.26251865641493355 7.6881056359908957 93 95 94 0.30143404026739778 27 2304 4 1829
516 0.99934633605626033 -0.24645644432570055 7.663789650119667 60 64 65 0.75284870664538261 27 2305 4 1832
517 0.4398591564349657 0.83588968129570407 7.3213482516184829 34 56 63 1.3726891467501618 5 1912 4 1845
518 -0.23731423934365942 1.0781778529251531 6.6234781827561759 87 103 111 0.5748015622518633 27 2334 4 1847
524 -0.13745662900517211 0.53180517888694634 7.3609268694558079 0 0 0 0.89548857583395636 5 1979 27 2360
528 1.0876364386729545 -0.32562666465576018 7.5426197726801414 95 105 111 2.4666366225851295 27 2160 4 1699
530 0.30455607747819852 1.0448761725336408 6.8967847925852501 157 163 163 2.1002879575441535 27 2353 4 1875
531 0.70263400698183465 -0.20984309429691297 7.8561393476358417 84 82 76 1.4671830776063839 27 2350 4 1893
532 0.14721961422929769 -0.86895083127007311 7.4900230498392748 89 71 63 1.3182769686004101 27 63 26 132
533 0.02993237468932175 -0.84034823855581131 7.4579592630095712 35 31 23 1.7391112026976674 27 80 26 146
534 0.62972950635668612 -0.83650256145005775 7.5171479866680917 162 157 155 1.1946898982329963 27 86 26 152
535 0.56811386423607646 -0.82509061886342894 7.5282246518489355 160 145 134 1.4007815340804624 27 96 26 167
