# 3D point list with one line of data per point:
#   POINT3D_ID, X, Y, Z, R, G, B, ERROR, TRACK[] as (IMAGE_ID, POINT2D_IDX)
# Number of points: 400, mean track length: 2.6470254957507082
999 10.50904844040098 -3.8986191514626776 37.51680758734485 154 151 145 0.14066299118440448 174 3076 185 3071 177 3263
1000 7.3450191469652495 -3.9351662516697661 38.388040066891953 148 151 150 0.15185910990345211 174 3066 185 3072
1001 10.07842553335769 -3.8635489315606062 37.710124532135517 146 145 138 0.073944529601229547 174 3079 185 3073 177 3024
1002 10.07842553335769 -3.8635489315606062 37.710124532135517 146 145 138 0.073944529601229547 174 3080 185 3074 177 3025
1003 13.265582404751614 -3.6812263834767744 36.76590854641406 134 133 126 0.058692456028766965 174 2731 185 3075
1004 13.265582404751614 -3.6812263834767744 36.76590854641406 134 133 126 0.058692456028766965 174 2732 185 3076
1005 12.477807535654838 -3.7356870271370224 36.996600379746162 219 219 219 0.17016524723178308 174 3086 185 3077 177 3026
1006 8.7322902000515281 -3.8290711066571976 38.032142786922208 203 203 203 0.088098082564368699 174 3083 185 3078 177 3028
1007 12.568892759590018 -3.644724295290354 37.01362789549448 137 138 128 0.20178615312815587 174 2737 185 3080 177 3032
1008 8.8555256970182281 -3.7488482074656346 38.012337498654475 105 107 103 0.097248297749598575 174 3089 185 3081 177 3036
1009 9.4881313132939678 -3.6859325322535876 37.840366194915632 212 212 212 0.086275192369898959 174 3091 185 3084 177 3038
1010 8.1223932904803693 -3.6618615067889526 38.178156594704518 137 136 132 0.17308896170854657 174 3359 185 3086
1011 8.1223932904803693 -3.6618615067889526 38.178156594704518 137 136 132 0.17308896170854657 174 3360 185 3087
1012 10.431047360042809 -3.5954376399123982 37.714883482375974 204 204 203 0.64995620047213565 174 2269 185 3089 177 3041
1013 10.418377617497102 -3.5943413474215191 37.656563032337544 204 204 203 0.41188219086627798 174 2749 185 3090 177 3042
1014 12.02700496115054 -3.5308117965259922 37.093704712371355 189 180 172 0.59112929486334553 174 603 185 3091 177 2665
1015 13.312449056897309 -3.4469775835788838 36.787039795456501 155 150 142 0.20415543793935442 174 3096 185 3092 177 3043
1016 8.4387031906996786 -3.6043306210230286 38.13100330253355 209 207 208 0.13303091968651104 174 3092 185 3093 177 3044
1017 10.968263669001891 -3.5333072868277875 37.455439852173008 132 132 125 0.090918205807750632 174 3097 185 3094 177 3046
1018 9.2111168457126329 -3.493344478437431 37.920464967910611 210 210 210 0.39210237348477389 174 2755 185 3095 177 2678
1019 13.120784900693288 -3.2553227753175871 36.743746499786496 156 152 150 0.49793084741559818 174 1607 185 3097 177 3047
1020 6.6429421526473336 -3.3815626235862313 38.610128210802564 153 158 156 0.55804855009180909 174 3371 185 3098 177 3283
1021 8.4603289013262017 -3.4114132746568773 38.126929788811118 203 201 202 0.24671747773051175 174 3101 185 3099 177 3048
1022 6.2958304001222691 -3.3629927338487042 38.885391074058127 185 185 187 1.4151614874629828 174 2758 185 3100 177 2120 185 2097
1023 6.4441798318360046 -3.3296114039209797 38.672247465144288 172 176 177 0.31565586354952219 174 3103 185 3101 177 3050
1024 7.7368931012896072 -3.2223710020533822 38.367956340742076 147 147 143 0.061181214990391898 174 3107 185 3104 177 3055
1025 5.8188938164966695 -3.124674253529323 38.912626663164204 177 177 178 0.40373551219242054 174 3108 185 3105
1026 12.611634284589396 -3.023263229700921 37.093349622233681 147 135 129 0.69559125474340544 174 2771 185 3106 177 3056
1027 11.370954630606116 -3.0301910616262013 37.411599853217723 80 83 75 0.22985360529546336 174 2772 185 3107 177 3057
1028 13.206196677539806 -2.9138333326913259 36.834933522318941 124 114 102 0.61834992100863573 174 3112 185 3108 177 3292
1029 8.7460211670755044 -2.8893981378494078 38.072887195243467 89 91 83 0.14466088606852764 174 3113 185 3109 177 3060
1030 6.9847628323363304 -2.57720203072396 38.575067661784132 147 148 148 0.30124690994597397 174 3121 185 3110 177 3063
1031 7.7295734664204341 -2.4228387553549595 38.439788539635877 203 203 204 0.12291511605478511 174 2795 185 3112 177 2728
1032 5.6895807620508334 -2.0334518835667423 39.021139281407741 110 109 105 0.27096859710023136 174 2801 185 3114 177 2732
1033 8.0527689168269223 -2.0368564749943814 38.361316811317622 93 106 108 0.13938900678550181 174 3128 185 3115 177 3070
1034 11.736921787323132 -1.9693718506908473 37.340741874978427 54 53 49 0.3025465313405567 174 3129 185 3118 177 3071
1035 13.099133685056985 -1.8534422185725494 36.981120494528277 107 100 89 0.035474888605196833 174 3134 185 3119
1036 5.2131152701838124 -1.9072162434660693 38.962055459206724 172 169 168 1.0754342294060346 174 816 185 3120
1037 13.567797721149848 -1.7607246260357652 36.81799762616285 79 70 58 0.1867159465963861 174 2806 185 3122 177 3074
1038 11.592578981533547 -1.7885870780024242 37.391201234987989 25 33 26 0.73187726173163836 174 3135 185 3123 177 3075
1039 12.027689638229219 -1.7074040091134537 37.298027916223717 87 86 79 0.23327105179133456 174 3139 185 3128 177 3078
1040 13.256358054754864 -1.6575875945732659 36.943444516767691 138 137 134 0.20375405740472727 174 3140 185 3129 177 3079
1041 13.483769136172963 -1.6585043758857982 36.827408081005807 135 129 121 0.89123916636748657 174 2386 185 3130 177 3080
1042 6.5699675988641486 -1.7321726293062716 38.776497269767901 220 221 222 0.24869306217544707 174 3142 185 3131 177 3081
1043 6.5699675988641486 -1.7321726293062716 38.776497269767901 220 221 222 0.24869306217544707 174 3141 185 3132 177 3082
1044 12.466291316749725 -1.6445513595412196 37.370848617366484 134 129 122 0.7105055264298934 174 3143 185 3136 177 3083
1045 10.46624047311699 -1.6450314859809976 37.660548699374218 90 93 91 0.19620831652731768 174 3145 185 3137
1046 11.10785308349187 -1.592749293560604 37.562381111526143 140 137 130 0.1511002638799866 174 3151 185 3138 177 3085
1047 13.400132199118465 -1.5379582207543958 36.95066691321545 57 59 53 0.25418434700728487 174 3148 185 3139 177 3322
1048 13.200493962263698 -1.5198116333771003 36.890892226297261 61 65 59 0.45870409270936185 174 3410 185 3141
1049 10.588122702983924 -1.5742081623539628 37.717745333787626 149 143 138 0.11874362787003104 174 2816 185 3142
1050 6.4104908305572312 -0.79779159153534762 38.820721367084282 100 114 118 0.27443723516967145 174 2445 185 3153
1051 8.7896028794336427 1.7983893358121437 38.425508055709798 209 218 229 0.33701595764069409 174 3577 185 3197
1052 5.1823914129237076 2.4933807873137894 39.231036550060992 74 87 87 1.2624625717162419 174 3452 185 3216
1053 12.418124626222493 2.6794805498035523 37.103674976243127 145 150 151 0.8309532400921037 174 2895 185 3220
1054 9.5844079136501001 -6.332934868841968 37.559312341601583 227 227 227 0.022093079239455797 174 3256 185 3246
1055 9.5844079136501001 -6.332934868841968 37.559312341601583 227 227 227 0.022093079239455797 174 3255 185 3247
1056 12.212162866492651 -6.0378603889401852 36.801875956633289 228 228 228 0.33217528062077639 174 2935 185 3250 177 3182
1057 10.373159356642203 -6.1686601218953543 37.38561980246341 152 155 153 0.1632565301889343 174 3264 185 3251 177 3184
1058 7.7790932901463865 -6.204198457861712 38.079050427132614 148 150 150 0.14169317381923838 174 3260 185 3252 177 3183
1059 10.214916250782178 -6.1440544112915694 37.414213827692713 157 158 153 0.18937235353924686 174 3265 185 3253 177 3185
1060 10.214916250782178 -6.1440544112915694 37.414213827692713 157 158 153 0.18937235353924686 174 3266 185 3254 177 3186
1061 11.839266120012198 -6.0185468808678433 36.960911934077195 238 238 238 0.12626119800511118 174 2939 185 3255 177 3187
1062 12.394892802770478 -5.9739517558867279 36.817636031241243 130 133 126 0.41027493654691688 174 3271 185 3256 177 3188
1063 6.035774964448148 -6.1308625577175127 38.526058677028026 198 198 199 0.52781310910137647 174 2925 185 3257 177 2878
1064 12.066577919044901 -5.8480042601141999 36.858551941455623 231 227 228 0.2389310159129133 174 3277 185 3259 177 3190
1065 8.0384689171972621 -5.9744536543109668 38.017772552234497 223 224 227 0.26508028644453457 174 2943 185 3260
1066 11.341588128827368 -5.7852659190528524 37.118230021899947 215 213 213 0.3060641414658124 174 3282 185 3261 177 3192
1067 6.3106667573212256 -5.7962472833208336 38.475007151287571 160 164 165 0.21479194409826188 174 3276 185 3262 177 3193
1068 9.7649006042793971 -5.798951443908714 37.562566211306866 219 216 218 0.11559632362836085 174 3285 185 3263 177 3196
1069 12.663485496893873 -5.6011068734255307 36.745810168070157 136 132 124 0.11954009417702773 174 3293 185 3264 177 3197
1070 11.991529103193146 -5.5932836147209732 36.937188490630973 122 120 114 0.14862977282350562 174 3299 185 3266 177 3202
1071 5.6042072230649822 -5.692266066663958 38.632893516058118 254 234 222 0.85717890882774073 174 3279 185 3267 177 3200
1072 9.9386689908228245 -5.7106457847920415 37.53378108194412 143 143 140 0.22643535367832546 174 3290 185 3268 177 3201
1073 11.793472010158434 -5.5524866257888865 36.997273362312889 147 148 143 0.118830167896102 174 2965 185 3269 177 3205
1074 11.644103604982545 -5.5407007806257598 37.009091119971949 145 146 138 0.15239321398797062 174 2967 185 3272 177 3206
1075 5.9800772612859507 -5.582742548330434 38.610062504232602 197 201 204 0.15709682580321613 174 3287 185 3273
1076 9.8235825128882261 -5.5854595202595476 37.489508931362174 197 192 190 0.36132390255129948 174 2964 185 3274 177 3207
1077 6.115767503547124 -5.5184366684599686 38.539664079356847 75 79 74 0.11111211660410499 174 3296 185 3275 177 3208
1078 6.115767503547124 -5.5184366684599686 38.539664079356847 75 79 74 0.11111211660410499 174 3297 185 3276 177 3209
1079 11.586680273186532 -5.4216486190275424 37.046824724315321 223 219 217 0.14651225204160176 174 2977 185 3277 177 3210
1080 10.724263123795293 -5.4506506340282694 37.472329138212174 138 137 135 0.54645963641095685 174 2980 185 3278
1081 10.724263123795293 -5.4506506340282694 37.472329138212174 138 137 135 0.54645963641095685 174 2979 185 3279
1082 9.9562439923521886 -5.3951039038123891 37.572051736628048 100 102 97 0.26194738021758623 174 3305 185 3280 177 2928
1083 11.950616317589111 -5.2749578459905022 36.935980060590396 234 232 233 0.3000536040556584 174 3306 185 3281 177 3211
1084 12.105741184175065 -5.1769004012116344 36.930572789837179 146 145 141 0.30414425435368453 174 3309 185 3283 177 3213
1085 12.105741184175065 -5.1769004012116344 36.930572789837179 146 145 141 0.30414425435368453 174 3310 185 3284 177 3214
1086 5.9933256317294132 -5.2818183364022202 38.600100397784068 201 206 210 0.28756500002712149 174 3303 185 3285 177 3212
1087 5.9988042435431188 -5.2851106876195821 38.615659332363663 201 206 210 0.17707702133887751 174 3304 185 3286
1088 11.926404872284337 -5.1709344899161342 37.035657442101737 106 107 98 0.061235793545086993 174 3311 185 3287 177 3215
1089 6.1328506333348836 -5.2121578409186622 38.600572096461413 135 139 140 0.38617198718838891 174 3307 185 3288 177 3216
1090 9.4223846626997751 -5.1567993498065494 37.729252810519696 211 211 211 0.021845375604419862 174 3314 185 3293
1091 9.4223846626997751 -5.1567993498065494 37.729252810519696 211 211 211 0.021845375604419862 174 3313 185 3294
1092 10.919405015133814 -5.0960159347762932 37.366131682143568 116 118 112 0.21730812320727833 174 3319 185 3295 177 3220
1093 10.919405015133814 -5.0960159347762932 37.366131682143568 116 118 112 0.21730812320727833 174 3318 185 3296 177 3221
1094 8.3495932526151968 -5.1473835916344299 37.994329958843089 126 128 122 0.15772107696736662 174 3312 185 3297 177 3219
1095 10.784867304265529 -5.0660192197129117 37.212617462570847 130 128 120 0.52220275769556168 174 3497 185 3298
1096 7.0848745979019965 -4.9941091404871596 38.321145372677513 124 126 126 0.37486504382962454 174 3321 185 3302 177 3227
1097 10.71232737863882 -4.9256330072647865 37.390601083980897 225 225 225 0.073348642826899679 174 3328 185 3304 177 3229
1098 12.197430657590921 -4.7818165978864355 37.025322275311332 113 114 106 0.28970171375686277 174 3013 185 3305 177 3231
1099 11.62721413672255 -4.7833997226682072 37.156412330585987 121 119 114 0.23862392920699857 174 3330 185 3306 177 3232
1100 11.62721413672255 -4.7833997226682072 37.156412330585987 121 119 114 0.23862392920699857 174 3331 185 3307 177 3233
1101 10.51099769672229 -4.8146642813139398 37.515058604504219 227 226 226 0.065896337376738029 174 3329 185 3309
1102 10.592251989171537 -4.6825120332973889 37.473915991830673 138 136 132 0.15139930685696099 174 3334 185 3312 177 3238
1103 10.227904874265429 -4.6029070286449691 37.547685998885434 128 129 122 0.11045054617926993 174 3337 185 3314 177 3241
1104 12.812142122373185 -4.4285752311355973 36.801944326418642 66 64 56 0.097748987686389843 174 3339 185 3315 177 3242
1105 9.9348463124834492 -4.5830741661747778 37.682767439561751 135 133 130 0.050159596213906373 174 3510 185 3316 177 3243
1106 7.7283178353586175 -4.3676826034148233 38.260373566811758 123 123 121 0.19360596150358889 174 3341 185 3323 177 3248
1107 13.360192118935695 -4.0352974400693071 36.682772106570603 138 136 131 0.15060201573608714 174 3346 185 3325 177 3252
1108 12.496950073389151 -4.0387683181898328 36.954613253293608 136 136 130 0.16199836629321099 174 3348 185 3326 177 3257
1109 9.4548498246105321 -4.1756410723792321 37.819293226920159 113 113 106 0.04630129014517826 174 3344 185 3327 177 3255
1110 9.4548498246105321 -4.1756410723792321 37.819293226920159 113 113 106 0.04630129014517826 174 3345 185 3328 177 3256
1111 11.578178053619448 -4.0945311643087416 37.276540676441549 206 206 206 0.039338616817299776 174 3347 185 3329
1112 6.5050787419231391 -4.1316574665522481 38.592397510511994 93 95 95 0.33616368201733388 174 3343 185 3330 177 3258
1113 13.485069149512098 -3.7978046789183173 36.677590497248524 209 209 208 0.4950153724357545 174 3073 185 3332 177 3016
1114 7.2500310609363758 -3.9267143793936765 38.456122027163637 149 154 152 0.19539001421806537 174 3068 185 3333 177 3021
1115 13.409547680878672 -3.7205938309650906 36.721680375867415 112 110 101 0.34916803499568455 174 3352 185 3334 177 3264
1116 10.275518443714942 -3.8508650077353517 37.577406213729041 134 135 130 0.11685240171750866 174 3351 185 3336
1117 12.97780286392012 -3.5418577558761899 36.847919723963805 203 197 197 0.056656586753798401 174 3364 185 3342 177 3270
1118 11.333496424192695 -3.6177748561296021 37.348983130618649 131 129 123 0.26510688172954455 174 3361 185 3343 177 3271
1119 7.8878692146368543 -3.6636241397784244 38.275097469162489 118 118 115 0.212920577838111 174 3358 185 3344 177 3272
1120 12.459542569546823 -3.5323068966679219 37.02230063982703 196 188 183 0.18889205267731624 174 3093 185 3345 177 3273
1121 6.024406532207446 -3.6215225213823325 38.769846960153039 184 184 185 0.17957760792540423 174 3357 185 3347
1122 10.321442002229153 -3.5285942479127494 37.677916357328996 150 151 146 0.30303755477795447 174 3367 185 3348 177 3275
1123 10.321442002229153 -3.5285942479127494 37.677916357328996 150 151 146 0.30303755477795447 174 3366 185 3349 177 3276
1124 11.676199151944864 -3.4703521965383137 37.267836647715264 170 160 152 0.16776200161911306 174 3369 185 3350 177 3277
1125 7.4087612740031847 -3.5319125436432102 38.351368193931286 132 132 130 0.20900626335053005 174 3365 185 3351 177 3278
1126 7.5378915863713081 -3.4614636232163631 38.363884496989513 195 195 195 0.15744508420399375 174 3370 185 3352 177 3281
1127 10.700594483998543 -3.3989737074981003 37.550507037519651 193 193 191 0.064656582213970762 174 3372 185 3353 177 3282
1128 8.3476594655986531 -3.3476502317292884 38.179365935615579 138 138 136 0.1803024113647983 174 3374 185 3358 177 3286
1129 8.7855026895079487 -3.3307505043614611 38.051825909361007 140 140 137 0.14060092509425401 174 3375 185 3360 177 3288
1130 10.804169084315756 -3.2676918004753337 37.550456588126799 94 90 81 0.20592413917207167 174 3376 185 3361 177 3289
1131 7.4471492139233151 -3.2393192457766298 38.441520937113943 162 162 162 0.32131264795734754 174 3105 185 3362 177 3052
1132 7.8283366631652687 -3.2294557270195146 38.251922605873602 146 145 141 0.2693836847491759 174 3106 185 3363 177 3053
1133 13.43377678654255 -3.0524181093713936 36.775178064911515 179 171 168 0.16818935455755213 174 3109 185 3364 177 3054
1134 12.056992074812788 -3.0215022724701726 37.197762184644894 172 170 163 0.20388768279594557 174 3377 185 3365 177 3290
1135 11.850848216118051 -2.9715483978100363 37.256453044790867 158 147 145 0.1722441727935681 174 3381 185 3367 177 3293
1136 12.240946404321814 -2.9535764483135316 37.15757883142529 64 61 53 0.17253678936500175 174 3111 185 3368 177 3294
1137 6.1039816467879131 -3.007448914943061 38.83281931917719 130 130 130 0.26032648795645424 174 3378 185 3369 177 3296
1138 7.0953634365786815 -3.0236390353383138 38.526145510375891 80 83 82 0.23212480886864062 174 3380 185 3370 177 3297
1139 12.498583638613203 -2.918270283218777 37.068980691531785 114 103 91 0.26775214082426491 174 3383 185 3371 177 3295
1140 10.480339546103593 -2.9488206436562039 37.696114125384241 153 157 156 0.91108107129715543 174 3539 185 3372 177 3298
1141 6.0179453697304455 -2.8038724750254378 38.814608367008205 184 184 184 0.62417397035733335 174 3386 185 3373 177 3300
1142 6.8924405130851394 -2.4493628197778792 38.56307210405442 48 53 49 0.2883454722159039 174 3391 185 3376 177 3302
1143 7.4222956035339411 -2.3574002084910548 38.44588127422471 215 218 219 0.1899280385615183 174 3123 185 3378
1144 5.7238005164291952 -1.916854318709017 38.911060842820497 165 164 163 0.5263980358398469 174 3396 185 3384 177 3308
1145 6.3752719001437939 -1.8849645011974039 38.781823676982391 78 91 89 0.15365948185184905 174 3397 185 3386 177 3309
1146 6.3752719001437939 -1.8849645011974039 38.781823676982391 78 91 89 0.15365948185184905 174 3398 185 3387 177 3310
1147 10.903009149092679 -1.8402514098853153 37.638724612108028 106 100 91 0.10745761088240224 174 3400 185 3388
1148 5.9322864214642896 -1.7778283839527538 38.950524905980146 162 161 161 0.25899405460199204 174 3137 185 3389 177 3077
1149 10.769768256155134 -1.7448500174194752 37.614733235234894 70 66 58 0.15100257437002704 174 3138 185 3391 177 3313
1150 6.3036546446618491 -1.7439650817924117 38.848915581303615 171 168 167 0.15266523552905745 174 3403 185 3392 177 3315
1151 11.860745796419454 -1.6381278368651366 37.330538828128965 134 130 127 0.31045378761319714 174 3407 185 3395 177 3317
1152 10.880904117717439 -1.5985648774846499 37.611450282644363 140 134 131 0.18151859406205592 174 3149 185 3397 177 3084
1153 12.293562029176606 -1.5104753229643482 37.241219271012135 71 72 67 0.29444907509993573 174 3411 185 3400 177 3323
1154 11.78967459102423 -1.4935920396619211 37.390867314510544 83 83 82 0.33833064869220381 174 3413 185 3401 177 3483
1155 10.820685916918297 -1.4668127866107461 37.722744992121548 86 86 81 0.67939034257020892 174 3415 185 3405 177 3087
1156 10.969628103729391 -1.4559976673527453 37.606007444255091 67 67 58 0.1964656231640157 174 3416 185 3406 177 3326
1157 8.0964611261972479 5.1675025718396768 38.3631046878333 28 35 36 1.9318876375878475 174 1241 185 3509
1158 10.497465332974217 -6.222418704147155 37.368083180235494 124 124 119 0.21858627432914415 174 3462 185 3520 177 3401
1159 7.9274370271755821 -6.2521488128093017 38.04592489601513 126 128 126 0.085746392951446218 174 3459 185 3521 177 3402
1160 12.915332199473852 -5.9583301206440495 36.575205245104755 145 144 140 0.43953667092071863 174 3468 185 3522 177 3407
1161 11.192749950491883 -6.0924650841005539 37.118765414344182 248 248 247 0.069212365852672056 174 3467 185 3523 177 3406
1162 12.094728202751853 -5.9907959450358366 36.874041267954652 151 150 146 0.26208040299880447 174 3470 185 3524 177 3410
1163 12.094728202751853 -5.9907959450358366 36.874041267954652 151 150 146 0.26208040299880447 174 3469 185 3525 177 3409
1164 8.4232165953615947 -6.1618576428286804 37.923854334500156 209 209 209 1.1276096948688425 174 3263 185 3526
1165 10.036488918488951 -6.0880057308260973 37.413151314384152 141 140 134 0.195554671939 174 3466 185 3527 177 3408
1166 9.051905189938644 -5.9809604653275654 37.723523278931971 140 140 140 0.16009886551028263 174 3471 185 3528 177 3413
1167 8.3105551655601033 -5.9614305519294666 37.988805479785555 122 123 119 0.23398189695880808 174 3472 185 3529 177 3415
1168 13.266192866482596 -5.595079938304278 36.488932640149848 143 140 131 0.46102591402272647 174 3479 185 3530 177 3418
1169 6.9230728670330395 -5.8455112461913998 38.332430095179269 91 99 92 0.20290767599377921 174 3475 185 3531 177 3416
1170 8.9000882217386117 -5.8442477099207073 37.813540109091726 200 200 200 0.17920103322428482 174 3477 185 3532 177 3417
1171 12.486555703727007 -5.6104018444948034 36.755587974787879 118 118 114 0.27774731447407558 174 3482 185 3533 177 3421
1172 6.466988116166454 -5.7657474318817181 38.447802755103901 30 32 23 0.15815363550518466 174 3476 185 3534 177 3419
1173 11.517208319916389 -5.5529782322005152 37.091406402255046 121 120 115 0.25171340670254683 174 3483 185 3536 177 3423
1174 12.4317960241459 -5.4179997246902358 36.775870027665682 222 218 218 1.4024553314918651 174 3638 185 3537 177 3565
1175 11.040379472931242 -5.5133083349238357 37.265591499151675 108 110 100 0.11546649636680027 174 3484 185 3538 177 3424
1176 13.303441111785183 -5.268000171625137 36.520310130465937 123 122 117 0.39518244193904084 174 3487 185 3539 177 3426
1177 10.480350154909441 -5.4411935731101577 37.423344709140125 119 119 117 0.19646485252596343 174 3486 185 3541 177 3427
1178 12.310341478746537 -5.2149226396417587 36.916708372775041 79 78 72 0.068382697515690927 174 3492 185 3542 177 3428
1179 9.4819925819934809 -5.3381685544812196 37.735234753277496 109 110 104 0.094148544487646313 174 3489 185 3545 177 3429
1180 9.248402822598603 -5.2468200166030998 37.7815891710597 137 140 134 0.27625862697205539 174 3493 185 3547
1181 11.332921379070608 -5.1435324197561894 37.228256678001749 133 130 124 0.36388893173252929 174 3496 185 3549 177 3432
1182 9.4499055958031626 -5.1467290387468241 37.71955642619367 214 214 213 0.11718072545170334 174 3494 185 3550 177 3433
1183 9.4499055958031626 -5.1467290387468241 37.71955642619367 214 214 213 0.11718072545170334 174 3495 185 3551 177 3434
1184 11.869878085505816 -5.0090981386891693 37.111636411769517 214 212 213 0.37247514484036909 174 3322 185 3553 177 3436
1185 10.579515228233056 -5.030570011638873 37.429286910932113 117 118 110 0.11317568961420332 174 3502 185 3555 177 3437
1186 12.787050828386402 -4.86279858460993 36.776658142968223 121 122 116 0.20002074893250588 174 3325 185 3556 177 3225
1187 5.6844292643830068 -4.9544824468702053 38.715486479209865 186 188 192 0.82766519880359901 174 3652 185 3559
1188 9.8405606119830864 -4.9995741122574877 37.665413417125748 131 132 126 0.051155722852474862 174 3503 185 3560 177 3439
1189 9.8405606119830864 -4.9995741122574877 37.665413417125748 131 132 126 0.051155722852474862 174 3504 185 3561 177 3440
1190 6.0701730462938377 -4.9741834235737885 38.560077977478578 174 174 175 0.54775751760652103 174 3649 185 3562 177 3583
1191 13.229478418017619 -4.6810299829528157 36.781587542460301 228 226 224 0.1950399128178654 174 3668 185 3563 177 3441
1192 8.3059391188425149 -4.8328938704269193 38.10120375360119 142 142 139 0.026602816933747376 174 3505 185 3564
1193 7.7042294911839235 -4.7206966878324694 38.217977872327403 130 129 127 0.18371741385504781 174 3506 185 3567 177 3596
1194 11.380541228444207 -4.5602906884059946 37.229860944357611 220 212 208 0.35578867484577748 174 3509 185 3568
1195 9.2595234867532703 -4.2053510481172216 37.864583424688959 156 156 152 0.44702295122680719 174 3512 185 3573 177 3447
1196 8.3282276455883473 -4.0949156705619325 38.14982607690181 150 151 146 0.1093468662269011 174 3516 185 3574 177 3449
1197 5.4528463659665096 -3.9751743972510929 38.900007650118738 147 147 146 0.026644603712896855 174 3515 185 3575
1198 9.6308743694669943 -4.0076595525781569 37.801254895487581 206 206 206 0.24730879020845462 174 3517 185 3576 177 3450
1199 11.293373426869946 -3.9060206178151895 37.306743497967993 139 135 129 0.22865385625398216 174 3520 185 3577 177 3452
1200 5.549886387661374 -3.8277354847267624 38.901276585264895 163 167 168 0.39807150596478857 174 3519 185 3580 177 3454
1201 5.7154601967550818 -3.758348085585328 38.794175321200441 179 185 184 1.2900926435096809 174 3523 185 3583 177 1360
1202 12.374941733316749 -3.6971671124240109 37.104001337174026 154 152 149 0.25930773977503574 174 3525 185 3584
1203 12.374941733316749 -3.6971671124240109 37.104001337174026 154 152 149 0.25930773977503574 174 3526 185 3585
1204 9.2997035803843477 -3.7591701901776271 37.872061029940305 148 149 143 0.1410523530429881 174 3524 185 3586 177 3458
1205 10.822851639100568 -3.4852371119504322 37.497659394856882 140 136 132 0.3224797634286371 174 3527 185 3587 177 3462
1206 11.37706685464253 -3.4467884186802271 37.33792084505 181 177 174 0.050523055616031702 174 3528 185 3588
1207 9.3335600104965426 -3.4325355568022355 37.916961261538141 141 142 137 0.19797421049239164 174 3529 185 3590 177 3463
1208 9.3335600104965426 -3.4325355568022355 37.916961261538141 141 142 137 0.19797421049239164 174 3530 185 3591 177 3464
1209 9.7764101712216611 -3.4188249148364025 37.77998060023512 145 143 141 0.19563727972220038 174 3531 185 3592 177 3465
1210 10.980182692984513 -3.360847420665285 37.446956327839082 177 171 165 0.12436270626510752 174 3534 185 3593 177 3466
1211 5.8617011278789475 -3.2028277658326556 38.867300022088322 175 176 176 0.50596080909986363 174 3535 185 3594 177 3468
1212 12.723910228469897 -2.9129916613297109 37.016010006073294 120 108 101 0.24086142520342105 174 3538 185 3598 177 3471
1213 12.658417038953583 -1.9426976184107259 36.98169734687793 96 82 67 0.82427980483060248 174 3860 185 3604
1214 11.591237572336054 -1.9517981626235814 37.385438593212477 103 101 97 0.6630367867317829 174 3545 185 3605 177 3477
1215 5.1049243887468867 -0.84522536070566445 39.170162047652511 161 160 159 0.1545329448952398 174 3422 185 3625 177 3496
1216 12.816109353309342 5.3698286114802132 36.982336396013949 146 144 138 0.86032767327966608 174 3598 185 3700
1217 8.8522925805476707 -6.3819037587969865 37.773932318892655 130 132 128 0.15431632357538361 174 3606 185 3706
1218 8.8522925805476707 -6.3819037587969865 37.773932318892655 130 132 128 0.15431632357538361 174 3605 185 3707
1219 6.8559559565629815 -6.1997313943520851 38.286911132473897 210 214 213 0.30120201672736985 174 3611 185 3710 177 3543
1220 7.540998856452358 -6.1458134586784432 38.102885087756931 160 160 160 0.12020105355699778 174 3614 185 3711 177 3544
1221 7.540998856452358 -6.1458134586784432 38.102885087756931 160 160 160 0.12020105355699778 174 3615 185 3712 177 3545
1222 10.926303924348522 -6.0346092897039263 37.280296554732701 228 227 225 0.13421670042755579 174 3621 185 3713
1223 6.2997564693073063 -6.0909943563205688 38.461958649079506 158 161 160 0.51154378433285219 174 3612 185 3715 177 3547
1224 8.1206067464341647 -6.0645945092592699 37.997593030573583 216 222 222 0.23702589133553578 174 3618 185 3716 177 3549
1225 8.1206067464341647 -6.0645945092592699 37.997593030573583 216 222 222 0.23702589133553578 174 3619 185 3717 177 3550
1226 5.6824321568908323 -5.9926982098858161 38.630121259262566 250 229 222 0.95403221486457035 174 3613 185 3718 177 3548
1227 11.417071733663475 -5.8636803337552479 36.861688296164559 144 142 137 0.47980482806535241 174 3274 185 3719 177 3551
1228 7.4971142023479826 -5.9512064251319687 38.175134820744027 223 225 227 0.04414707764850892 174 3623 185 3720 177 3552
1229 7.1501060986396476 -5.9323125504244558 38.331862301114235 205 208 209 0.46369271675745205 174 3622 185 3721 177 3716
1230 11.814747305157296 -5.7757820669487367 37.117416437998379 217 214 212 0.13098022767294157 174 3627 185 3722 177 3553
1231 12.950092826228055 -5.6316812156451652 36.641135943615915 126 125 120 0.2230808946397522 174 3631 185 3723 177 3554
1232 8.5666027332707682 -5.7920223037126934 37.906128199122001 223 226 227 0.060730850763942711 174 3626 185 3724 177 3556
1233 10.427028560185112 -5.733861125487195 37.297956631590139 143 144 140 0.41990776320715995 174 3628 185 3725 177 3558
1234 8.0007086150113267 -5.6973392365541686 38.063415223983831 235 238 243 0.058238254859650652 174 3630 185 3726 177 3559
1235 10.620543586395705 -5.6103464658666446 37.328858990386323 228 224 222 0.062342419738788069 174 3633 185 3728 177 3564
1236 7.6260739589469182 -5.6403049697161185 38.139216401671369 226 231 236 0.24537515873440888 174 3632 185 3729 177 3562
1237 12.149344957412771 -5.3879425851054865 36.995255686764153 217 217 217 0.17556172914088339 174 3640 185 3730 177 3568
1238 12.149344957412771 -5.3879425851054865 36.995255686764153 217 217 217 0.17556172914088339 174 3639 185 3731 177 3569
1239 9.7013079995543183 -5.4941785168714272 37.60904844661713 191 188 187 0.082150156126197665 174 3636 185 3732 177 3566
1240 9.7013079995543183 -5.4941785168714272 37.60904844661713 191 188 187 0.082150156126197665 174 3637 185 3733 177 3567
1241 10.472562152173486 -5.2558774372485164 37.468493281901679 220 220 221 0.35327716902560519 174 3491 185 3734 177 3572
1242 10.472562152173486 -5.2558774372485164 37.468493281901679 220 220 221 0.35327716902560519 174 3490 185 3735 177 3573
1243 12.600701224932884 -5.0177377843818833 36.855940756246206 220 220 220 0.22232066080756682 174 3650 185 3736 177 3576
1244 12.891081405043693 -5.013429060470429 36.666510841868224 225 218 220 0.17163002646030279 174 3648 185 3738 177 3574
1245 9.9595934331143621 -5.1753025224527507 37.56320701424707 221 220 220 0.077170509723960098 174 3647 185 3739 177 3575
1246 6.9306928857431274 -5.147504729062728 38.405089687393748 189 191 190 0.21407929200019429 174 3644 185 3741 177 3578
1247 5.5001659989417311 -5.0581680523339667 38.843704816838297 106 109 107 0.30939682416373321 174 3643 185 3742 177 3579
1248 10.365333959291755 -5.0688589214299427 37.457650062606447 116 111 106 0.079028313898117597 174 3501 185 3743 177 3580
1249 13.270969688965037 -4.813004025967329 36.548902738934906 135 134 130 0.45566559541577334 174 3659 185 3745 177 3582
1250 11.480951291178075 -4.9451916771779239 37.24558715062318 215 213 214 0.37716699158533196 174 3658 185 3746 177 3585
1251 9.4065254434226055 -4.9780657793862773 37.788026638867954 113 111 108 0.037818898219007184 174 3657 185 3748 177 3587
1252 8.0755660264793576 -4.9514651378558527 38.120369408286955 211 211 211 0.19354101951481006 174 3656 185 3749
1253 7.6625445793221703 -4.9095538992253882 38.233365070064259 208 208 208 0.077449450211988832 174 3660 185 3750 177 3588
1254 10.436430656382159 -4.8530206856868574 37.542360366336247 218 218 218 0.10765691398412398 174 3665 185 3751 177 3592
1255 9.756644503337446 -4.7327271862551008 37.727822354854425 218 216 216 0.51061734766396638 174 3508 185 3755 177 3444
1256 12.128203464626754 -4.6111080863794687 37.085344202214166 221 218 217 0.084503654740291437 174 3674 185 3756 177 3597
1257 6.4257491379861733 -4.7054746906611893 38.553385171105617 149 149 148 0.34217423475682973 174 3667 185 3757 177 3595
1258 8.7697296296318044 -4.6627973479273184 37.92980931375984 193 193 193 0.19979825101805573 174 3673 185 3758 177 3598
1259 5.606804411058679 -4.5435921081873589 38.770872260349563 190 194 193 0.41896903154626158 174 3670 185 3759
1260 11.113121306663887 -4.5281928577966157 37.375261289584436 215 212 213 0.095232841866044096 174 3681 185 3760 177 3601
1261 8.1291963341349813 -4.5912682622432026 38.109094503584899 216 215 218 0.1293201899871958 174 3676 185 3761
1262 7.8712766720754352 -4.5498421516157155 38.196006738820273 194 194 194 0.12077058933141498 174 3677 185 3762 177 3602
1263 7.8712766720754352 -4.5498421516157155 38.196006738820273 194 194 194 0.12077058933141498 174 3678 185 3763 177 3603
1264 7.5204082190079857 -4.5126223801193639 38.296704155085656 206 205 208 0.11182583745936658 174 3679 185 3764 177 3604
1265 7.5204082190079857 -4.5126223801193639 38.296704155085656 206 205 208 0.11182583745936658 174 3680 185 3765 177 3605
1266 10.40029736690934 -4.4557310683818274 37.460059024160422 216 214 215 0.39321486216560109 174 3684 185 3766 177 3606
1267 10.40029736690934 -4.4557310683818274 37.460059024160422 216 214 215 0.39321486216560109 174 3685 185 3767 177 3607
1268 12.958224737494877 -4.2316148341485462 36.73674600718072 234 234 233 0.045540485800901288 174 3691 185 3768 177 3610
1269 9.7674477755899769 -4.3772069870369457 37.706537013803796 215 215 215 0.12158391102510291 174 3687 185 3769 177 3612
1270 9.7674477755899769 -4.3772069870369457 37.706537013803796 215 215 215 0.12158391102510291 174 3688 185 3770 177 3613
1271 9.427016488655001 -4.3617306027025409 37.793239996107282 210 206 205 0.053383112456579125 174 3690 185 3771 177 3614
1272 5.804084046064653 -4.2320903919344204 38.752508830122878 197 201 202 0.34807342710857769 174 3689 185 3772 177 3615
1273 8.491298836868399 -4.255268330995543 38.057024125195078 196 191 190 0.064800475594059367 174 3693 185 3773 177 3616
1274 5.4074134692290325 -4.1495708390096162 38.816691259481459 207 214 216 0.70153219482085127 174 3692 185 3774 177 3617
1275 8.1171876419964466 -4.2119796295909051 38.145877650828389 190 190 190 0.25221463473251876 174 3694 185 3775 177 3618
1276 7.6077422937401415 -4.1785912391224826 38.312021316746545 186 185 185 0.17180036244403032 174 3695 185 3776 177 3619
1277 10.911296633502701 -4.1069748339035561 37.385280919747821 223 223 222 0.12500303306053209 174 3700 185 3777 177 3622
1278 6.9957397717186565 -4.0801540912222691 38.465916187664455 188 188 188 0.21061939776961577 174 3699 185 3778 177 3624
1279 13.249014322224378 -3.8838994497441153 36.861086687233502 213 212 211 0.28673507633675893 174 3703 185 3779 177 3625
1280 6.368358333743795 -3.9849000541113617 38.620160062624691 196 201 202 0.27212157976078649 174 3701 185 3780 177 3626
1281 12.518103297664037 -3.823644196902289 36.941018881491779 206 206 206 0.20664413614470559 174 3706 185 3781 177 3627
1282 12.518103297664037 -3.823644196902289 36.941018881491779 206 206 206 0.20664413614470559 174 3707 185 3782 177 3628
1283 5.8956125982255516 -3.9040631237958379 38.790520232156858 192 192 194 0.52795812049520952 174 3702 185 3783 177 3629
1284 12.167842165376442 -3.8177319649207133 37.135488306493841 210 208 206 0.18389822891225527 174 3708 185 3786 177 3630
1285 8.3364028676839101 -3.8836498747592687 38.107101529542639 206 206 206 0.22703484103827565 174 3704 185 3789 177 3631
1286 8.3364028676839101 -3.8836498747592687 38.107101529542639 206 206 206 0.22703484103827565 174 3705 185 3790 177 3632
1287 11.477041508925717 -3.777482088115605 37.275143796816771 199 195 194 0.14458107160248368 174 3709 185 3791 177 3635
1288 11.150518171666391 -3.7557552125952838 37.434217429941164 207 204 204 0.073549577791045484 174 3711 185 3792 177 3638
1289 10.475106324300031 -3.7068199237823252 37.56876292371637 202 200 198 0.10123146209748396 174 3713 185 3793 177 3641
1290 10.475106324300031 -3.7068199237823252 37.56876292371637 202 200 198 0.10123146209748396 174 3714 185 3794 177 3642
1291 10.147968702308214 -3.679335533003687 37.701097106407495 221 221 221 0.11362189816322581 174 3715 185 3796 177 3644
1292 9.519835142306313 -3.6050769761441832 37.822861916411526 185 185 185 0.18827164407458072 174 3717 185 3797 177 3646
1293 9.519835142306313 -3.6050769761441832 37.822861916411526 185 185 185 0.18827164407458072 174 3716 185 3798 177 3645
1294 9.1101803517986539 -3.5772380538702637 37.978966576514658 210 210 212 0.09983821789180336 174 3718 185 3799 177 3647
1295 9.1101803517986539 -3.5772380538702637 37.978966576514658 210 210 212 0.09983821789180336 174 3719 185 3800 177 3648
1296 8.5270607152809745 -3.5228548697839357 38.117725475018219 197 196 196 0.18710805009040574 174 3721 185 3801 177 3650
1297 8.1659529090600191 -3.4677759386301195 38.19134934468098 205 205 205 0.09313862722877532 174 3722 185 3802 177 3652
1298 7.8553800417914825 -3.4410974327217203 38.307360526383285 195 195 195 0.33638124133043529 174 3723 185 3803 177 3653
1299 7.0383724834125179 -3.319017660647483 38.497587364395834 188 188 189 0.18179302880551904 174 3852 185 3804 177 3654
1300 9.5690408218664498 -3.2723142376562468 37.900237328873516 194 193 194 0.38382039026099207 174 3725 185 3806 177 3655
1301 9.0741786888950173 -3.2082231699134121 38.106417182166219 180 180 179 0.30245473710221649 174 3727 185 3807
1302 11.674391111754478 -2.9445424930335897 37.31597671606788 69 67 56 0.13816411180155938 174 3537 185 3808 177 3656
1303 5.5815215964184937 -2.8133582023591734 38.93020286982216 176 176 176 0.32338130395583464 174 3729 185 3809
1304 8.5568033316731764 -1.6708160528836586 38.485207055704201 135 129 115 0.056670334421950137 174 3863 185 3811
1305 8.0032187201610849 -1.60991233485635 38.431467042152455 140 134 122 0.016221109544378616 174 3739 185 3812
1306 5.2230251115704567 -1.3055222827244251 39.189984342959043 171 174 177 0.24959189620280819 174 3743 185 3814 177 3669
1307 5.2230251115704567 -1.3055222827244251 39.189984342959043 171 174 177 0.24959189620280819 174 3744 185 3815 177 3670
1308 11.405684298049046 -1.2829994563990792 37.447018856946222 173 176 176 0.17602447671676139 174 3551 185 3816
1309 7.3663907312162218 -6.2918870834793186 38.200312956067137 223 225 230 1.3665570934482938 174 3458 185 3857
1310 11.868562608295724 -6.1475409254438675 36.963159774216102 217 216 214 0.30040440829839377 174 3806 185 3859
1311 9.1306980369866295 -6.1927153800656747 37.645629138316941 210 211 211 0.1480748920056007 174 3804 185 3860
1312 9.102893860763059 -6.1725907862310807 37.584371637287923 210 211 211 1.2390315691476241 174 3805 185 3861 177 3546
1313 8.6534044339112555 -6.1551512114074836 37.863714152873825 203 206 207 0.048054442841812872 174 3808 185 3862
1314 8.6534044339112555 -6.1551512114074836 37.863714152873825 203 206 207 0.048054442841812872 174 3807 185 3863
1315 13.136421254057266 -5.7762723658226793 36.482450783599113 227 225 220 0.27842344068052721 174 3810 185 3867 177 3714
1316 10.2823041877148 -5.9518403264082789 37.369557045662184 233 233 233 0.079701353676357931 174 3809 185 3868 177 3715
1317 12.186173706836172 -5.767331405921774 36.83542006568846 221 217 218 0.14651026882788457 174 3811 185 3869 177 3717
1318 9.3338224287475402 -5.8327619031679427 37.666169324111053 201 201 201 0.16908544810303963 174 3812 185 3872 177 3719
1319 11.206445083316066 -5.6893839790910263 37.161507863725269 211 210 210 0.17150615333908673 174 3813 185 3873 177 3720
1320 13.128536138002831 -5.4285184946241829 36.605781318290205 210 209 209 0.2970173902568094 174 3634 185 3874 177 3560
1321 9.2037477737875868 -5.4621607324949233 37.749949588863558 211 211 211 0.068696140980478285 174 3817 185 3878 177 3728
1322 6.304324560644643 -5.4083072296895995 38.544391948073489 176 180 181 0.14287743503573702 174 3816 185 3879 177 3729
1323 8.776215877542759 -5.4293549286780962 37.888309934851989 191 189 190 0.18229922403366047 174 3818 185 3880 177 3730
1324 11.517128757679057 -5.3030705020887394 37.078095517323277 218 215 215 0.13655539714057432 174 3821 185 3881 177 3731
1325 11.517128757679057 -5.3030705020887394 37.078095517323277 218 215 215 0.13655539714057432 174 3822 185 3882 177 3732
1326 8.3201222474665855 -5.3738213001130886 38.004965553080815 208 207 207 0.073908083175590486 174 3820 185 3883 177 3733
1327 10.988572369329097 -5.2947935788475808 37.228984015948491 213 211 212 0.49539679665741287 174 3823 185 3884 177 3734
1328 11.753676510298526 -4.8054069271365565 37.15218470505355 128 128 121 0.28970617148888395 174 3829 185 3889 177 3739
1329 6.9727085890731102 -4.7752544066474547 38.430122416984169 198 198 198 0.26068033772217936 174 3828 185 3892 177 3742
1330 12.518275046075244 -4.6109301481155267 36.838817318670515 225 225 221 0.20981618301848534 174 3831 185 3893 177 3743
1331 9.3878178124021261 -4.7561960530162022 37.779082902543742 208 208 208 0.38460746661229922 174 3669 185 3894 177 3593
1332 11.611332216059912 -4.5596240360083362 37.233649955052108 226 220 217 0.15632668491560359 174 3833 185 3895 177 3744
1333 6.9829925809559565 -4.441748352383617 38.439885850620108 203 205 205 0.27527644100977672 174 3836 185 3899 177 3750
1334 12.594899778468889 -4.239316263461105 36.950535075263538 216 214 215 0.19988315108506971 174 3841 185 3900 177 3753
1335 11.301688504907037 -4.1507542299027493 37.312710870470902 208 204 203 0.34547231966987896 174 3696 185 3903 177 3754
1336 11.301688504907037 -4.1507542299027493 37.312710870470902 208 204 203 0.34547231966987896 174 3697 185 3904 177 3755
1337 10.488052729535706 -4.0974338287280343 37.59917834703726 212 212 212 0.31340532765049739 174 3845 185 3905 177 3757
1338 10.488052729535706 -4.0974338287280343 37.59917834703726 212 212 212 0.31340532765049739 174 3844 185 3906 177 3756
1339 10.155737249422108 -4.073291928093707 37.639797345627329 222 222 222 0.1780329954638975 174 3847 185 3907 177 3758
1340 7.0973034718850805 -3.7278338266340278 38.457695788041327 206 210 214 0.26336009891411266 174 3848 185 3909 177 3760
1341 6.4008833718767209 -3.6168373522494757 38.65648911905572 188 187 189 0.20307374610102133 174 3849 185 3910 177 3762
1342 6.3053633482804807 -3.2315109300225036 38.604618696738889 177 178 181 0.59735025758310789 174 3724 185 3911 177 3763
1343 8.5565552376645115 -3.1484592450649913 38.055176275854826 186 186 184 0.2027041458150248 174 3728 185 3913 177 3764
1344 7.4218224428448538 -3.0389022367574317 38.451139225596485 206 206 206 0.40098766864118857 174 3855 185 3914 177 3765
1345 6.4531932812661204 -2.9055234985476472 38.698399649591806 160 159 159 0.42897953071862882 174 3857 185 3915 177 3766
1346 12.044730122595931 -1.8833579591508511 37.303377880981074 117 115 113 0.27469610124839589 174 3734 185 3918 177 3768
1347 11.167352774902552 -1.817017972068927 37.549370302394237 118 113 104 0.17788769448770225 174 3861 185 3919 177 3769
1348 11.368207445149181 -1.5289329218215313 37.524134765166743 47 48 40 0.28489393723410733 174 3864 185 3920 177 3773
1349 6.6322532608703408 -5.3028754487573817 38.402509054794443 66 73 72 0.55120551772352089 174 3926 185 3951 177 3802
1350 6.676118944954978 -4.5964466586641644 38.501819494697855 66 72 70 0.21706332943875342 174 3888 185 3952 177 3805
1351 11.272567637502107 -2.9578540157772339 37.438093134730828 107 105 95 0.23163000156219563 174 3856 185 3954 177 3806
1352 8.8781561588278706 -2.8637658425440033 38.108814345066882 129 129 127 0.043936950747212593 174 3894 185 3957 177 3839
1353 8.8765281884691003 -2.8629667040564644 38.085528414041327 129 129 127 0.28187233391885791 174 3895 185 3958
1354 8.1837026239907811 -2.7897313647780826 38.272233385435875 119 116 115 0.24954192671972308 174 3896 185 3959 177 3811
1355 8.1837026239907811 -2.7897313647780826 38.272233385435875 119 116 115 0.24954192671972308 174 3897 185 3960 177 3810
1356 5.6107509364297545 -2.5272450174828061 38.878879626214882 118 119 121 0.48435379955046726 174 3899 185 3963 177 3812
1357 6.789277339092 -2.5878767195861716 38.647303579102363 88 89 84 0.56518366330863989 174 3901 185 3964 177 3813
1358 6.789277339092 -2.5878767195861716 38.647303579102363 88 89 84 0.56518366330863989 174 3900 185 3965 177 3814
1359 13.520185634369298 -1.9718843359670997 36.772376123110469 155 145 134 0.025638042622160788 174 3858 185 3967
1360 7.0484923757526872 -5.5041721921005324 38.32726702913228 226 230 230 0.17613695467614376 174 3925 185 3984 177 3837
1361 6.2875755089810763 -4.2755087395518094 38.600461966751851 198 206 212 0.44600908356771579 174 3927 185 3986 177 3838
1362 12.477344675783804 -2.6827114842660622 37.123355907356256 173 178 182 0.51274391345728187 174 3898 185 3987 177 3840
1363 10.58599450257161 -2.5980186961457421 37.83237284285881 162 183 195 1.803294126429458 174 3928 185 3988 177 3658
1364 8.1228669268468359 -2.3818822097380674 38.29425837316731 184 182 183 0.33252253596003367 174 3930 185 3989 177 3842
1365 7.2170917120881688 -2.3108479855708848 38.545029534264408 199 200 202 0.47044101370037988 174 3931 185 3990 177 3843
1366 6.5668475553700372 -5.7325960391965509 38.426778977776614 71 75 73 0.23836493834649955 174 3946 185 4006 177 3865
1367 7.1226433413475441 -4.621862993113961 38.415468941412229 181 188 188 0.14009576655337083 174 3947 185 4008 177 3866
1368 12.976694116916285 -3.1978199353335519 36.955850403097941 135 132 126 0.35060347927979957 174 3951 185 4009 177 3867
1369 8.101211524470239 -3.3037545372060815 38.368728054530258 137 137 136 0.29060459761751734 174 3950 185 4010 177 3868
1370 10.836295773090779 -3.0939425704717465 37.537575394318559 146 147 141 0.67460187974711094 174 3952 185 4011
1371 10.115394251872777 -3.7339139267770838 37.708340290335975 214 214 214 0.30130394025399143 174 3973 185 4035 177 3884
1372 12.992705075698012 -4.0626846349253256 36.580093579418751 141 141 140 0.22890669421573112 174 3989 185 4048
1373 10.137030338560105 -3.8299575669280026 37.711571154450681 147 149 142 1.5443924292061988 174 1566 185 4049
1374 6.004595748347394 -6.2196568651607498 38.538793981700081 74 93 92 0.42619873253122731 174 21 185 61 177 11
1375 7.8486049826963038 -5.3937252014164505 38.119394923295616 189 192 191 1.1177830681825796 174 1401 185 276 177 238
1376 11.313553544495409 -5.0546728743724181 36.924011787435646 121 118 112 0.26670194957527332 174 2630 177 277
1377 5.5397146168116409 -4.9487322414750121 38.72097816625152 56 58 57 1.4137936720373172 174 309 185 357 177 308
1378 6.8732367180305767 -4.978868048009744 38.311047667613302 71 80 77 0.097184169299596807 174 323 177 317
1379 6.8289153028024518 -4.6620290314663873 38.25571981580093 118 122 121 0.10320049530581019 174 393 177 368
1380 8.4907878597414612 -3.7151854119311247 38.027224834989077 80 84 80 0.096054945891929255 174 585 177 490
1381 5.4657215587963872 -3.5973863811147728 39.01436987609663 179 179 179 1.5775524827046834 174 2746 185 540 177 502
1382 8.3355856174072613 -3.3968994227087066 37.959522489391126 141 141 139 1.2255844352264567 174 624 177 529
1383 5.676304371504151 -3.1860973137614272 38.645343044686122 116 117 114 0.84246127358457323 174 655 177 540
1384 6.5736821711486861 -3.1666404077752484 38.664189289928579 97 100 99 0.6052277070539358 174 662 185 590 177 544
1385 5.631687531578617 -2.9566623150824562 38.724165493583627 110 111 111 1.3390587697758574 174 1658 177 577
1386 7.1678941195703763 -2.7545515077191691 38.467730934870168 134 137 138 0.15884806823243625 174 737 177 615
1387 8.9003159407844095 -2.7123260036001064 37.802040922085475 77 75 71 0.32643056399913978 174 741 177 620
1388 5.934212776473438 -1.8673800665000451 38.709827169005159 88 98 100 0.48173872134527829 174 823 177 691
1390 6.7095154380926187 -1.7753302585007085 38.747943051940609 115 128 127 0.4814111090127528 174 841 185 1474 177 699
1394 5.5384360236414993 -1.423813769420661 39.085793306956937 100 98 96 1.1702509027256476 174 907 185 787 177 743
1395 5.4255398807973609 -1.2921529451916423 39.095170339195718 104 103 105 1.3144966751164036 174 1809 185 1555 177 762
1402 5.7044570897446114 -6.1008126258684978 38.539456787018814 255 241 226 0.80762839293243449 174 1281 185 93 177 1072
1403 6.0936226552413792 -5.9409542617750013 38.454695206888317 178 178 177 0.32189289194123388 174 1308 185 142 177 1106
1404 5.4248070873916632 -5.0670286790600638 38.826662783093781 87 89 80 0.80221661823827606 174 2140 185 338 177 1227
1405 5.5947613402053289 -4.9140201025261874 38.747610851152302 196 199 200 0.90618008340715195 174 320 185 362 177 1238
1406 8.2334086442281755 -4.8855315467359599 38.182276390763178 201 199 200 1.592383070852974 174 1458 185 1952 177 1252
1407 5.4054892803681351 -4.5219462880124706 38.889850030165398 147 151 151 1.3042524821276291 174 2183 185 1244 177 1288
1408 8.6268261419530958 -4.5620176495654681 37.989301840849834 115 116 114 0.41400187248110409 174 1486 185 1991 177 1289
