# 3D point list with one line of data per point:
#   POINT3D_ID, X, Y, Z, R, G, B, ERROR, TRACK[] as (IMAGE_ID, POINT2D_IDX)
# Number of points: 368, mean track length: 7.3505388542257517
9078 5.4211431315707115 -13.936008278679298 36.224864755651332 145 150 153 2.2242048983376894 47 23 73 1103 81 683 69 599 83 495
9079 -3.8332480118390166 -12.740428172385613 38.846809401624476 211 215 214 1.0637488313786239 78 206 82 115 79 78 81 81
9080 -3.2879816063012535 -11.922813783527907 37.869324402680625 71 90 91 1.074327820190847 72 141 75 198 82 126 77 119
9081 -0.51049428966034749 -10.16660155183162 31.733946417915369 0 0 0 2.8437987205864852 47 50 48 79
9082 5.4960903160818049 -11.833393966044623 35.631191122254002 255 253 246 1.5503560801447396 70 137 82 142 80 814 72 893
9083 -4.0132421719700337 -11.5341859423012 39.295118012103465 211 225 228 0.61239467108537415 78 250 82 144 79 93 81 102
9084 -4.0132421719700337 -11.5341859423012 39.295118012103465 211 225 228 0.61239467108537415 78 251 82 145 79 92 81 101
9085 -7.8934385695582394 -10.533361874349696 39.794115335421338 70 88 95 1.140387353564106 47 63 82 151 98 12 85 664
9087 -1.7423967158050602 -10.849194675058358 38.696116748315553 65 71 69 1.1858277453768749 74 271 82 156 86 181
9088 9.6934020307211988 -11.167038185875152 35.596968715423074 255 245 226 0.31102781559409814 72 590 82 166 80 137
9089 6.7213795496505186 -10.640333159352068 36.237203292807749 223 205 188 0.71105549178249583 71 75 82 175 77 131 79 109
9090 6.7213795496505186 -10.640333159352068 36.237203292807749 223 205 188 0.71105549178249583 71 76 82 176 77 132 79 110
9091 7.6350164186109764 -10.638893119938961 36.761579037123056 221 184 158 1.2204730070167955 78 241 82 185 80 159 70 175
9092 -15.183733239118109 -8.8089445353671429 42.211228389537418 182 194 196 1.7924239640320312 73 305 75 303 82 188 80 200 80 626 82 184 77 187 84 109 90 10
9093 6.9779217818379839 -9.8070848532662183 35.728813852388981 90 98 102 0.56965158761608548 78 261 82 198 79 406
9095 -2.2587591786979839 -8.7280180855626668 38.208609987112368 31 52 58 1.9894506695548746 39 106 41 83 48 205 50 54 71 104 82 210 63 3
9096 7.2906454042778419 -10.141381919186738 38.620852305765794 222 216 210 0.64385395064749629 82 213 79 141
9097 -13.093057698723614 -7.7218947186437381 41.597243906974413 195 205 208 1.0871312654984946 52 51 82 216 41 51 39 59 67 26 79 160 84 152 98 58 83 98 86 186 88 87
9098 0.66843068981588916 -8.2806353755546969 36.637774367447001 158 167 171 0.35390051306952502 52 89 82 222 83 736
9100 -5.5867045005680458 -7.5480221284992792 40.520341006431586 217 211 204 0.36221288847238858 48 239 82 240 84 194 86 594
9101 7.3133206655774519 -8.3336433777794472 37.412402696639717 229 236 236 1.3365734472469555 72 1087 82 243 80 231
9102 5.3493478170216253 -7.4246964250974772 36.123050061185772 52 77 84 0.46868516516934977 78 1076 82 255
9103 -8.3023579775277554 -6.2690097028931371 40.714779235910953 182 186 181 0.29722958327358368 52 124 70 801 82 259
9106 -3.3076691168317502 -3.7332594364415237 38.604680989089111 27 63 71 1.9377356106940646 76 1846 82 296 84 269 84 270 75 1537 86 339 84 271
9108 6.8797014898354387 -4.3099027410991102 36.970117334826476 215 221 221 0.13735405341734114 50 195 82 306
9109 -0.3531908642490057 -0.73469849966585166 18.64281624897399 0 32 45 0.93905998570447868 39 217 82 315 89 177
9111 4.5434863589993126 -2.9737179419776081 38.953188254262933 188 189 186 0.7964978867252438 53 608 82 326 67 424 65 363
9112 8.7302205019157828 -2.8171237338154245 37.39245976252537 204 205 204 1.8023323750820792 72 365 82 338 80 311 79 901 83 964 77 1017
9115 4.292223470493802 -0.020140549264745795 17.448260271067952 13 44 48 0.23883103784465384 66 476 82 370
9117 1.4284535380910268 0.67055333730089228 8.2612061204872749 140 155 162 1.3088402351689727 41 768 82 383
9118 1.3965754402131534 0.98930519131673333 13.311908909856641 18 58 74 1.262102872555545 60 280 82 388 84 366
9119 1.2924446426392269 1.0222301170473043 7.3962465976804639 2 17 25 0.78321075394405071 39 305 82 410
9121 2.4811588946524035 1.9101730920263853 11.079298334133561 2 11 13 1.8271128035407143 41 596 82 458 84 449
9122 7.2514183385252506 -17.780149484677583 35.054973266555209 213 195 175 1.1039353092335691 70 7 78 42 82 526
9124 7.5268843681599904 -18.563503405096803 37.068298502024724 215 209 198 0.6907798059225817 78 617 82 531 80 1
9125 8.3875462862332846 -18.622559826387882 37.046833454819172 255 255 249 0.48846278650060987 78 49 82 533 80 487
9126 7.7537899800034804 -18.198276846375169 37.43296501494067 204 197 181 0.42627615128575852 78 628 82 540 80 14
9127 5.819607054373213 -16.574321160472973 35.537820502384157 230 234 236 1.0327143005846866 69 335 71 533 77 754 81 384
9128 6.5132414481347229 -16.750261629595215 36.420429384461578 185 169 155 0.57252905148607902 69 25 71 274 77 61 79 351 81 386
9129 8.1192569733115754 -15.737826224712283 35.73726217798589 251 255 253 0.12753394338228113 78 102 82 552 80 513
9130 8.2432918966111366 -13.499333847847209 32.986420434395349 255 253 245 2.4575617491859489 70 1008 82 571 80 69 81 56 81 679 79 46
9131 8.3372039514602463 -15.170730848473703 37.341554457799667 255 254 254 0.2860120053528557 78 126 82 574 80 535
9132 8.2507450473766433 -13.360568410682033 32.995636174300266 209 197 183 1.9526184319990343 72 63 82 577 80 538 77 409 79 49 81 61
9133 -3.6113690612002394 -13.85601780544048 38.61386074626229 249 255 255 0.30336696541838071 76 858 78 691 82 578 80 548 77 104 81 406
9134 -3.6065006967337774 -13.860916733168803 38.617790098130378 249 255 255 0.21220875386209084 78 690 82 579 80 549 77 105 81 407
9135 0.39756711516559529 -13.417051681124407 39.668088735132883 247 253 251 1.0756413449735218 71 54 82 598 80 562
9136 -4.481894303683827 -12.284466641364517 39.338110571078751 221 229 224 0.39726891314401541 76 293 78 226 82 602 80 571
9137 9.1186471772601898 -12.512286920726416 35.194414485449641 238 219 196 0.38953916972508384 72 110 82 605 80 558
9138 5.9313330320663535 -10.573287668339434 36.626528197410643 255 251 241 0.094465296042149302 70 177 82 636 80 597
9139 7.7504839186028622 -10.181923913505631 35.070123429335382 207 183 164 1.0684225367003091 78 735 82 643 77 636 81 720
9140 7.6544580753459961 -10.400567284288673 36.439424584054557 237 221 206 0.34537728625702224 70 181 78 245 82 647 80 165
9141 8.3838100004998495 -10.217505985489712 35.663029715296609 255 254 242 0.26992000220770945 78 736 82 651 80 166
9143 9.6736392981529811 -9.5190052778712566 36.076959047072499 255 246 228 0.15462639746939735 72 190 82 671 80 617
9144 10.032423786565612 -7.8145074386295352 34.834959802054158 218 191 166 1.9442073999901175 71 619 82 690 80 871 79 440 81 486
9145 9.6419240653804259 -7.4118678532346989 37.781591773997228 120 124 122 0.58722989334844045 71 385 82 696 80 658
9146 0.76133066506715352 -0.20654880235288842 17.351108242117757 0 19 27 2.0666137237370545 41 536 59 605 57 567 82 736 89 197
9148 6.7804303444630127 -18.6257455387757 37.030521109269408 253 255 253 0.49523761327249471 78 944 82 814 80 755
9149 -1.1433887503724403 -15.280875589176365 35.307963262499314 0 0 0 0.037294528870399017 73 830 75 109
9150 0.74530904283921906 -16.098639376075042 37.153629767958861 250 254 255 0.37864590976994711 76 1173 78 972 82 829 80 768
9152 0.75099757912748222 -15.89455313361524 37.447921499696939 250 255 255 0.32029356999449698 76 1176 78 976 82 837 80 772
9153 -1.6564789766979953 -15.096604983694702 36.641434237791529 100 130 146 0.38689506551736474 76 1190 78 983 82 838 80 775
9154 7.3104737731074296 -14.569016895274579 32.912864707360811 220 223 223 2.4120825408551645 78 966 82 839 77 590
9155 0.67592208593212844 -15.382046033697158 37.036848100181899 250 255 255 0.2364067265290275 78 981 82 840 80 776
9156 0.7782850395428822 -14.755995842267112 37.733607209142839 221 221 217 0.42076323322195108 76 840 78 674 82 845 80 536
9157 0.7782850395428822 -14.755995842267112 37.733607209142839 221 221 217 0.42076323322195108 76 839 78 673 82 846 80 537
9159 0.57211708025444952 -14.158188502197721 37.389945991382056 252 255 254 0.33756584530762551 76 1206 78 996 82 851
9161 -13.450605661725408 -11.606971536746189 41.110804724650109 116 124 122 0.44683982610279571 78 751 82 869 84 561
9162 -10.178338562732673 -10.671985231757052 39.01043626523083 237 242 239 2.1161460181203839 78 753 82 872 80 584 77 453 82 614 84 71 81 429 83 51 86 97 85 439 88 11 88 393 83 49
9163 -0.3297059153813785 -11.203636965273381 37.743941374344487 238 244 244 0.32412206235020569 76 1245 82 876 80 821
9164 -0.32970591538137928 -11.203636965273374 37.743941374344473 238 244 244 0.32412206235020774 76 1244 82 877 80 822
9166 8.377743557320283 -10.016891395546912 34.628916117370323 206 195 181 1.6625240070139948 70 1259 82 895 80 832 80 1105 79 965 77 932 81 901
9167 -7.9748102493642117 -8.7185180164016742 40.126887787215672 195 195 194 0.30161767630357972 48 695 82 899 84 146
9168 -14.829856642942843 -8.0819430908450958 42.215846787400828 179 185 185 0.68104852327645116 42 42 82 900 80 225 84 865
9169 8.8254510585695183 -9.3241419683724711 34.621932014302146 212 194 177 0.5937194938360334 70 1073 82 905 80 843 77 647 79 642 81 731
9170 9.252241584851463 -9.535162253913871 36.085632635550432 255 250 236 0.0916459308225549 72 628 82 913 80 844
9171 5.5565042459949021 -8.7314384105881526 37.865449690300018 233 222 213 0.11896442265357587 78 1065 82 922 80 862
9172 3.5896573624022343 -7.6786389565553792 38.791314223496265 141 132 126 1.1380838052144961 70 284 74 362 54 143 64 44 82 935 84 234
9173 5.2797830900657763 -3.879492241602192 38.007160942510609 163 158 153 1.1834631555848361 53 843 61 695 82 955 55 1018 63 674 67 668 65 565
9175 3.8415245580392008 -0.32646760170193495 35.222474667341004 0 0 0 1.2795771618441654 73 1233 78 865
9177 -1.3912544807649585 1.3638805144734301 5.9761894836460696 187 242 255 1.093193412865872 39 257 82 1005
9178 -1.0797972658252326 1.355830078533879 5.6933662557201794 88 123 140 1.1694270517911425 39 265 82 1012 84 971
9179 0.061920697927097812 1.5016431878048067 5.449028530520291 86 125 140 0.60960914828962476 41 247 82 1018 39 310 80 739 84 988 40 316 44 361 83 843 99 574 43 285 97 178 87 456
9180 8.4894018665342124 -18.461376088670679 37.081216590737057 198 176 155 0.40062064710890666 78 949 82 1034 80 759
9181 5.6445910499964045 -17.098866425199571 35.107924236867234 108 108 106 0.86685112149832477 69 803 71 766 77 753 79 776 81 860
9182 0.36758315024543631 -15.789237586833059 37.075478603707651 251 255 253 0.25967084438334426 76 1438 78 1179 82 1050 80 959
9183 -0.51404314390764627 -15.639089081901995 37.366034529107779 167 180 178 1.2407714682703765 75 843 82 1052 77 602 81 27
9185 8.6240435679036604 -14.528588143198178 34.565377189521712 255 254 247 0.83205373451967246 70 658 82 1061 80 785
9186 8.130798467037879 -14.207429290884146 36.108644043276044 255 255 247 0.86647875949906139 78 1183 82 1067 80 1091
9188 8.6496187174437154 -13.99895264158558 37.200242260911345 255 254 245 0.2766790134205912 78 1189 82 1073 80 973
9191 6.1398087800899042 -13.105067734270312 38.697030019175074 248 255 252 0.21393604346083453 78 1200 82 1084 80 982
9192 -11.502422339780843 -9.9425543465538446 39.164886090811862 184 181 179 0.99246438646267754 44 855 82 1086 80 995 84 1030 81 888
9196 10.192716061743278 -4.1480070327636689 35.879183898508572 156 147 136 1.0770711629007852 69 695 72 1139 82 1136 80 1032
9197 -1.717637630559772 1.4653933513460315 6.9021381993337432 204 251 255 1.410568495054938 43 589 82 1161
9198 0.451688179570499 1.5404676658037775 5.3827227563615665 111 146 162 1.0280079324780949 43 293 82 1169 84 1129 87 511
9199 6.8834936331515086 -18.296328545497072 36.806342117149732 227 195 166 0.49918306397186868 78 1302 82 1179 80 1073
9200 6.8834936331515086 -18.296328545497072 36.806342117149732 227 195 166 0.49918306397186868 78 1303 82 1180 80 1074
9201 6.400948844731432 -16.318377143266112 35.028362457398771 206 206 204 0.97334779114765679 72 1198 78 1310 82 1184 80 1076
9202 6.7383829968195696 -14.281546416241698 33.620980547507571 221 217 211 2.1026492511248382 78 1319 82 1185 80 1082 77 904 79 937 81 1004
9203 6.3830135151021876 -14.897776328752016 37.159884779122827 255 255 247 0.30744281736060791 78 1330 82 1192 80 1087
9206 8.9190967694940841 -8.466005138110372 32.249275629392457 255 255 246 1.2401136103563455 72 926 82 1219 80 1114 79 970 81 1038
9212 0.41089245267753072 1.5396723840767583 5.4085110426508036 120 157 173 1.0265670691577826 39 652 82 1302 47 669 84 1253 97 673 80 1052
9213 6.6075753937293191 -15.415795348206402 37.26067127584485 230 200 180 0.8687503967107395 69 1036 71 1164 77 911 79 940 81 1136
9215 7.0973904108025776 -12.19754326934417 36.903093503218081 223 187 158 0.3734275626839042 69 823 71 997 77 925 79 955 81 1021
9216 6.4558321893225852 -11.792815355347862 36.53423598326237 255 253 238 0.10258193130313631 78 1517 82 1337 80 1249
9217 8.8013488275104201 -10.648905583419991 35.571515044725999 255 254 242 0.16269041612411639 70 1716 82 1349 80 1258
9218 5.4455642898178347 -9.8205859181064614 38.585863892801292 211 169 145 1.5720543779236642 78 1533 82 1357 80 1271 79 1120 84 1311 81 1175 83 1140
9220 5.9253212402802884 -3.7582195890053836 38.696599342684856 0 0 0 1.2764833729683696 61 877 73 1681 43 1148
9221 11.129702353407891 -2.9704203602146779 38.29189598296697 160 146 130 1.387047874609123 49 1351 82 1407 79 1184
9222 3.480502547089988 1.2492006190452984 12.371987940811035 116 122 109 1.5224721232177576 82 1418 70 1642 66 945 80 1195
9223 -0.95708556969899716 -14.098229226740632 38.757437202230911 208 211 210 1.3881084119020364 45 707 47 1471 75 1574 43 1227 79 1213 81 1262 83 1304
9224 8.3583938786011167 -13.228560808566176 33.567627568336817 255 255 246 1.1413468642720621 72 1485 82 1436 80 1337 77 1235
9225 6.6766129826505223 -12.079655798669277 35.353142141588087 255 255 248 1.1150657391215097 78 1618 82 1443 80 1344 77 1182
9227 6.4980090804265274 -18.663124538925366 37.353430054096115 254 255 250 0.54042193273280426 78 1608 82 1490 80 1334
9229 10.759033931964952 -7.992210230743666 36.358873976818835 255 252 239 1.4442911441362105 69 1446 71 1334 79 1308 81 1365 80 1438
9231 -16.602332351278136 5.2768778226601709 50.170848344229576 95 125 135 0.014054850740853478 73 760 82 1510
9232 8.9933220256035948 -14.317800777372771 34.877617444420835 247 224 208 1.0860695638677502 72 1535 82 1525 80 1404
9233 8.5256628594270829 -13.010533861956874 36.096375454368022 255 251 238 0.85069329668719396 69 1411 71 1322 77 1257 79 1297 81 1355
9234 10.726959542540946 -6.8207209095016266 37.635246244621143 203 188 177 0.33660811423043047 69 1447 71 1353 79 1309 81 1368
9235 -6.6110740730331923 -1.8922285666013872 21.32057678490429 255 255 253 1.910702438404678 39 1259 41 1224 99 1128 86 1262 97 1034
9236 -4.5875909998881825 -5.4737347309187037 39.614280347165916 179 167 154 1.4095134011191963 76 2073 82 1561 90 1113
9238 -0.048392535599967958 -16.249424069325634 35.245879085322656 228 237 236 0.026276854269761472 72 1603 82 1579
9240 7.3699247858838897 -14.133958191886514 37.44474169313704 253 255 255 0.88748191416734679 69 1511 71 1407 77 1306 79 1348 81 1408
9241 -2.7272262932409257 -16.934771737470211 36.651645080378543 188 203 206 1.9088140694775195 70 634 72 507 71 9 73 63 76 800 74 83 78 637 82 5 71 10 73 65 76 133 78 94 80 15 80 18 80 22 77 391 81 6
9242 -3.4382470118019293 -14.975211975972545 38.035977859107142 247 255 254 0.74483347808634526 72 540 71 301 73 122 76 844 76 845 74 782 75 139 78 677 78 678 82 46 74 783 78 147 82 47 80 59 80 60 77 81 77 82 79 360
9243 7.181106201515818 -12.004646161217002 34.793591379410358 153 152 147 0.98831985657579668 82 1082 72 566 78 1004 80 980 77 776
9244 -0.41205109600390311 -16.712386991443726 36.017360450473497 167 179 180 1.585927810407993 70 45 74 76 72 20 76 124 78 84 82 536 71 8 80 497 77 58 75 85 79 11 81 374
9245 -1.4918136829623263 -12.739447085183254 38.555739486758213 141 144 139 1.8950830941001662 70 132 48 654 70 134 71 315 82 121 74 212 73 188 75 187
9246 -12.884258884405948 -10.214513719314155 41.871033008850908 94 105 106 2.0659776450802001 73 1395 78 1539 82 1340 47 413 48 80 74 308 71 96 73 642 76 1276 80 164 80 1266 77 1093 79 120 84 84 84 1291 100 462 83 1114 86 124 79 125 97 730 97 898 99 809 85 937
9247 6.250171404577527 -10.699165118241657 36.338388485102072 80 84 80 0.77158694228066904 72 602 78 1207 71 333 82 1097 80 825 78 1032 77 782 79 815 81 893
9249 2.0203396897460282 -8.9436899800660132 37.8065578888733 96 108 108 2.6208911809855486 72 653 78 777 54 69 44 148 69 145 71 365 76 924 78 305 61 28 55 44 80 207 82 669 67 802 79 426 79 429 84 1062 83 129
9251 -14.619713074155706 -11.949873929970321 41.500938904900877 226 228 223 2.2364531164454635 72 905 78 749 82 1075 71 71 72 597 74 848 73 880 75 621 82 861 80 815 80 985 77 645 77 649 77 795 79 82 81 690
9252 0.41440587964426323 0.045485121863779968 16.152179360116659 172 185 192 1.6114192651443762 49 251 53 635 47 629 43 572 43 574 55 597 41 540 68 171 64 205 82 345 54 275 44 292 42 252 40 273 63 159 67 136 79 205 86 827 89 461
9253 1.9069091681326895 -10.697814113950745 37.825123967196475 162 109 104 1.0230643389240375 50 1424 52 1416 54 1411 48 1668 44 1404 46 1000 75 1582 78 1628 82 1501 70 1804 74 2004 72 1497 69 1379 71 1282 73 1728 76 2038 80 1356 77 1190 79 1222 84 1400
9254 6.2545261960742238 -10.709348462545135 36.359133099665542 89 94 89 0.99986490362736624 70 171 78 1206 72 603 69 624 71 332 82 1096 80 824 78 1031 77 781 79 814 81 892
9255 1.9069091681326895 -10.697814113950745 37.825123967196475 161 110 104 1.0230643389240375 50 1425 52 1415 54 1412 48 1667 44 1403 46 999 75 1581 78 1627 82 1500 70 1803 74 2003 72 1496 69 1378 71 1283 73 1727 76 2037 80 1355 77 1191 79 1221 84 1399
9258 -2.944335076373116 6.4826895153262347 39.051395512892128 137 179 202 3.4439530870285662 50 288 82 449
9261 8.8397636912843023 -13.875203711004787 35.681783940432851 240 208 181 0.56794791971006009 71 782 77 762 79 789 81 876
9262 -6.5115006580375496 -1.324577153218705 19.219876569191626 162 179 185 2.3029886657028182 41 1202 82 1508 84 1441 86 1248
9264 5.4617780960535347 -16.376211497702251 34.322631310232126 217 223 226 1.0966044247018527 78 956 80 17 72 501
9266 -1.4125690428134028 -14.66595628218764 37.629060790783392 114 122 121 1.1816645769225937 72 76 75 1613 82 57 80 66 84 5
9268 -3.3257494870216324 -12.605612396438403 38.645884847735303 65 84 84 1.8084663073241627 72 579 80 106 81 83 47 27 86 100 86 885
9271 -7.5284394549230145 -10.257738076125879 38.151637158985004 247 250 250 0.97013285103895475 48 86 80 146 84 89
9274 4.8952499309736748 -10.335834372149279 36.786405861220636 68 86 91 1.2648693593069504 48 190 78 254 80 162
9275 8.8716600066516094 -10.177920329676205 35.892216219234768 205 177 155 0.30499251313028591 70 185 82 197 80 170
9276 -2.7494967119725895 -9.582393115827502 37.576095885268103 59 89 104 0.74475859880225714 61 2 80 174
9277 7.4658069725376128 -9.2233022866037881 34.453805253873966 247 235 223 1.9639838931015694 78 272 80 181 77 646 79 641 81 728 81 729
9280 0.65195989568077228 -2.8302913123516107 29.257329713403813 192 191 188 0.33833367734567077 59 185 80 290
9282 1.7645345293547228 0.37206001254488713 15.606783452665647 137 158 161 1.6320230259053439 68 186 80 347 62 229 63 506
9283 -9.8031579674489482 1.0157077133435719 41.954371124933935 58 95 107 2.2538004888747927 78 484 80 362 81 1308
9284 -9.3842011320575622 1.2235619586601958 41.703082136564127 177 227 253 0.96514913772443212 78 1131 80 368
9285 -8.121644760598576 1.3775965491522564 40.626892124231219 180 223 243 1.2623582813316299 78 881 80 372
9286 9.8948569605582666 0.42934774019434441 39.204131473900127 231 228 221 1.1567930570143012 47 1429 80 382
9288 0.030703232794637908 2.8619394434816008 41.266945135786933 138 168 184 2.2027350148248788 78 532 80 416 81 249 85 734
9290 1.1805168600580442 2.957419172272735 39.06610407131911 105 142 159 0.28219215202603082 78 535 80 424
9291 6.5954908472273948 3.4929402611944487 37.9659749465049 108 152 174 2.5673761441291121 78 549 80 435
9292 0.99185116883470226 1.5548397389472566 6.0090204586661233 24 52 60 0.78917978615747097 41 272 80 440
9294 10.157927778570153 4.3645555723991061 36.160627332139775 118 157 175 0.8392859218068891 49 1376 80 449
9300 8.8861312136980857 -14.969740779116735 34.520726605703445 223 216 206 1.2930914445620374 72 42 82 556 80 516
9301 8.8861312136980857 -14.969740779116735 34.520726605703445 223 216 206 1.2930914445620374 72 43 82 557 80 517
9302 6.4616046768509081 -14.569382156618721 34.404843915680189 239 241 244 0.89641877513009494 70 656 82 558 80 518
9303 6.1825284521215815 -15.80447570093253 38.09258500258936 148 148 144 1.1436380868596083 69 42 77 70
9304 8.5318716383354154 -14.67749316159874 36.27559359045906 229 204 186 0.56296405398377025 69 593 71 553 77 606 81 873
9311 9.3816798128753653 -9.0710262062898988 40.670991980668312 217 217 213 0.73145521400751468 78 321 82 253 80 645
9312 11.182124037338987 -8.0562646758961751 35.676909619459728 255 255 248 1.5856794623118766 71 817 80 646 79 842
9313 0.51991012276768089 -0.090607968484718429 5.840224537596602 94 106 107 0.77292726993739103 39 586 80 650
9314 4.6204150360860883 -6.5406662488099334 32.593392800446978 104 119 123 0.82668481714695585 78 1077 80 654
9315 2.3197159109699634 -3.6818699082857007 36.670955503759508 203 201 201 0.0085155292239338758 78 1120 80 673
9320 -6.8422670479530643 1.9817823604698366 41.518641967059168 119 151 169 0.41232555707888807 78 499 80 710
9321 4.0944685281932927 2.5703221688167779 38.708935971368227 82 102 110 0.25615405843493338 78 1265 80 728
9322 2.2635511752725046 2.6570642377544718 37.171887123542966 98 137 152 0.9603780432151986 78 531 80 730
9324 0.31155998924298867 1.5908461952223436 5.1599999751065235 63 95 108 2.3162739349336174 39 318 80 741
9326 6.1113830421063051 -17.15280093467932 35.953491049755172 181 169 161 0.63756594544388723 69 17 71 7 79 344 81 654
9327 5.4726168113226663 -16.249117329175185 34.705554314319961 93 103 105 0.44426806926001011 69 581 71 532 81 864
9328 -1.6779982867077254 -15.562984196467051 38.354240348115404 97 130 145 1.5545222462586956 76 1194 78 987 82 43 80 778 81 668
9329 9.7696735513167603 -15.575459001314996 36.815294522947923 251 253 255 0.50213211830507365 72 1395 82 1064 80 787
9330 8.4825816398088953 -13.21932270428211 32.036099756246919 221 199 175 2.1345697163652297 72 860 80 789 79 363 81 678
9333 9.1454360520212763 -13.335989547680072 36.519660568465454 239 207 179 0.59850000215627774 69 362 71 566 77 615 79 604 81 693
9334 -11.34836324999965 -10.716256382380131 38.806390275010358 74 94 100 1.6436316840662 78 754 80 818 77 452 79 94 83 40 86 74
9335 10.246215009545503 -11.408035393749131 35.296478852469029 232 202 178 1.0098458195177586 69 98 71 793 79 807 81 704
9336 6.8153537820267465 -10.162935536429062 34.820407218320469 227 198 176 0.81855908400408417 78 1033 80 827 77 445 79 625
9337 9.9065090443518109 -11.314542790808058 37.553105974673116 239 210 190 0.95553864801192712 69 109 71 330 77 437 79 626 81 718
9338 9.9065090443518109 -11.314542790808058 37.553105974673116 239 210 190 0.95553864801192712 69 110 71 331 77 438 79 627 81 719
9346 -4.7187510353125353 -0.29130500310891516 15.723100049702051 8 41 45 0.95496610289407913 41 715 80 897 84 914 97 624
9351 -3.9539300505787991 -11.711956762576413 39.105572023472298 250 255 252 0.29603417832163692 76 1457 78 1209 80 988
9352 8.6807897549248345 -10.248277193668214 34.730455391256328 255 250 236 1.0046211799119533 70 1258 80 996 77 780 79 817 81 898
9353 10.033213511099063 -3.3411160663323214 37.609465381977905 203 202 197 1.6739668303057083 49 1004 70 1360 80 1035 79 899
9354 11.230291447743628 -2.7836009779402926 35.293711161947293 189 189 189 1.6718518339892121 71 1100 80 1036 79 1059 81 1248
9355 -0.79869169572681187 1.397830612043651 5.6059704974564539 231 253 254 0.99109703978177066 41 554 80 1051 84 1114 97 469
9359 5.9773454907688768 -15.428979835680105 33.090398028560763 198 200 198 2.4792711272501635 78 1311 80 1077 77 900 79 932
9361 -0.48231883953422328 -13.665464063489416 38.427712017082769 252 255 254 0.3242110257747533 76 1671 78 1346 80 1095
9366 -16.429696458078023 -6.9519155441202178 41.997840418434599 199 199 197 0.80945815670610965 52 63 54 48 80 1143 47 115 50 560 56 62 52 62 50 561 48 701 84 149
9367 -9.6705038509103733 -7.0298800730624373 41.428625612969753 186 185 174 0.56632334856303868 48 1422 82 1363 80 1152 84 1310
9373 8.4344931686919118 -14.896885136700574 35.642425465780875 242 206 178 0.422535625581618 69 1264 71 980 81 1009
9375 4.7646480376763538 -13.087825411951508 36.411083409234223 248 254 254 0.41098832510373917 78 1508 82 1440 80 1240
9376 4.60464721813549 -12.162500011653631 35.835851896586071 240 250 252 0.63294135381513628 72 1228 82 1332 80 1241 78 1513
9378 5.0303228255628953 -7.457521849505631 36.745026557489368 84 92 95 0.68470800809977295 78 1387 82 1368 80 1281 77 959 79 1132 84 1417 81 1194
9379 6.3449550587091714 -7.5036227533388029 39.060400819357632 181 182 183 1.4018012051244888 45 772 47 1368 51 1318 53 1353 73 1453 49 1305 77 1104 63 1083 67 1082 81 1200 65 936 83 1165
9380 6.1991197984596909 -6.1292502432427458 37.262223317841844 213 194 179 0.87229231796948703 70 1562 82 1376 80 1286 84 1339
9382 -2.025385014689919 2.8808478987326396 5.0901369866176793 124 127 127 1.8707893765647665 41 595 59 660 61 579 98 598 99 579 97 201
9385 10.458269265548655 -9.3231345305206865 37.817366526340614 214 183 163 0.30950990086863295 69 1307 71 1202 79 1235 81 1292
9387 -10.428027008971096 -2.1200873041026771 37.774436611072765 155 174 176 0.48516563426816817 78 1714 80 1381
9390 9.6048943953155224 -9.1740991895491888 35.527969279182784 236 236 230 1.7233966422241567 72 1545 82 1505 80 1413 77 1242
9393 9.3823942666642886 -12.541765494745743 36.928953866099377 230 189 162 0.6704166097183486 69 1464 71 1365 79 1316
9395 9.0993679437700088 -6.8052815652074488 38.742265366161057 219 221 219 0.67956451726193956 49 1534 69 1485 77 1291
9396 -2.3844637757647615 0.54630058213010968 8.0159268987353727 160 179 183 0.88934992903924792 39 1282 80 1469
9398 -2.1090913507250426 -2.4943069131906332 22.22841188159396 47 81 95 2.0829015458389577 62 1385 80 1495 49 1561 83 1395
9399 3.2646190510149875 0.73850280636334831 12.853647797549955 215 213 208 2.2216660104923482 66 1217 80 1496
9400 0.40650597355943197 -13.710787352894334 36.596337489093166 206 217 216 1.1075715850877568 71 39 75 149 80 82 74 171 76 228 82 575 77 94 81 63
9401 -3.7724528143741995 -12.113957702738542 39.125487518925837 226 235 233 1.7973926261366338 72 148 74 240 69 96 71 319 73 609 76 297 75 606 78 230 80 119 71 323 72 591 76 882 78 232 82 134 77 124 77 125 79 80 79 81 79 85 81 422 81 425
9402 -3.5667424916275894 -0.16148835013970816 15.634646893645357 176 195 203 1.3410924006035023 41 167 44 250 39 196 80 300 55 215 71 177 73 407 57 213 99 144 97 116 85 208
9403 -0.73912178651138549 -17.600066239642157 36.119030235113868 96 97 96 1.0153217782869921 70 625 72 497 74 722 76 772 78 630 80 486 77 382
9404 -0.78411051429895084 -15.790683120029525 37.291889721662919 181 184 178 1.878860634400743 76 1181 82 832 80 514 74 112 76 178 78 656 82 36 77 406 79 356 81 665
9407 -5.5535681326283539 -6.4845308025866819 41.464765819603002 152 145 139 1.3028467013486884 48 1013 52 837 52 1197 46 768 80 881 84 900 86 779
9409 1.1518943351979734 -8.8001480073885947 37.456468094481856 147 148 145 1.1563078134900016 71 100 72 1508 74 2010 73 1736 76 2012 75 1591 78 1638 82 1462 80 1366 54 1415 68 1058 79 1233 64 1141
9410 -0.83786012175192104 -13.886126683235979 35.000482457901306 179 191 192 1.3519469321314428 75 132 72 73 74 152 76 212 78 139 77 78 81 40
9411 -0.63884734383424002 -17.404979078583835 36.377218773512254 184 184 182 1.9911242223905048 70 1436 72 1196 74 1867 71 973 69 1261 78 1309 76 1887 82 1311 80 1225 75 1465 77 898 73 1600 79 1081 81 1133
9412 -1.1346104467661533 1.2838476532685854 5.6778551117670863 134 156 166 1.347042182821701 49 1237 55 1269 53 1298 70 1657 62 1109 57 1132 59 1188 68 912 61 956 43 1193 45 663 41 1103 56 1244 72 1371 64 906 71 219 63 935 67 923 65 769
9414 3.4443002761080481 -9.3989316248919437 37.106155165608946 140 145 145 1.2495463078706235 72 1612 78 1743 82 1589 69 1498 72 1606 71 1396 78 1733 80 1488 80 1480
9415 4.522677774048816 -10.50555412866275 37.247074001099939 148 148 148 0.78378444196119912 82 1457 69 1381 70 1719 78 1629 80 1358 77 1192 79 1224 81 1278
9416 -1.4049234520218159 -9.7307654355793662 38.495594922513135 215 217 216 1.8254584497377089 69 1066 76 1711 78 1365 80 609 74 304 76 915
9417 1.1261148236962921 -6.6835512196082494 38.679039973210926 232 229 230 1.0555192233554509 49 758 47 1007 70 796 54 868 48 1025 44 673 72 283 76 1507 78 1090 80 877 80 878 49 757 51 987 53 1010 47 1006 70 795 43 1110 55 1187 50 140 52 601 54 867 48 1026 56 1045 44 672 42 1205 45 611 72 284 69 880 76 1508 57 1183 83 1039 83 1040
9419 7.5876855986396112 -10.171794543614352 36.624916574167933 68 65 69 1.0569528284297292 78 1669 82 1503 70 1805 72 1499 71 1286 80 1412
9421 -3.3312101868979007 -12.981001144443461 38.243545101594314 203 211 211 1.3783112625768974 46 574 82 104 82 588 80 554 70 1030 48 938 74 1184 72 568 69 76 71 312 73 590 76 1221 75 592 78 194 80 553 77 426 79 71 84 562 81 414 86 76 86 506
9426 -0.59590835775441597 -13.889142119739391 37.904974526401929 143 146 145 2.357046484042614 48 9 72 556 69 602 71 43 73 574 78 688 48 2 82 92 82 582 80 91 70 105 74 176 72 94 77 99 79 790 81 65 81 66 84 33
9427 5.5119118211964064 -8.2123427003261202 37.145963651651236 60 63 66 2.0394533125388823 73 1739 49 1407 51 1446 53 1453 47 1492 50 1440 48 1682 45 881 78 1642 69 1389 71 1296 72 1511 82 1469 80 1371 77 1207 63 1138 67 1149 79 1237 84 1415 81 1293 65 995 83 1269
9428 6.2087193795423339 -9.8513570236600945 36.503765467140802 159 148 141 1.0166707119582865 69 841 78 1218 82 1214 80 1111 70 1265 72 1079 77 794 79 822 81 1031
9429 -3.2106594178121757 -13.51833380959177 37.929488312928356 207 212 212 1.9401292592414907 44 8 74 801 72 562 69 361 70 687 71 47 76 859 73 153 75 586 78 692 82 580 80 94 80 550 48 1 70 114 46 568 45 162 77 106 79 373 81 409 83 18 86 52 86 56
9430 5.238625938575618 -13.807295779473238 35.584534028796867 162 173 181 1.1756592996951614 78 1664 82 1526 80 1426 70 1846 72 1537 71 1318 77 1237 79 1276
9431 -0.11458140756452931 1.4099736700383327 5.4619571640007853 122 133 138 1.3724957103207649 44 778 42 288 40 735 39 639 70 497 52 330 72 796 64 264 80 922 100 750 81 1123
9433 10.264440957670164 4.4673904720406501 38.314357828932195 97 134 154 2.680129331948566 47 1445 80 446 81 604
9434 10.45135009270083 -11.936420050213458 35.965459872346649 255 254 251 0.17438239729142083 71 578 79 386 81 437
9435 10.935271202652894 -8.3405061734450392 34.459996458669252 217 196 177 1.5669163780554547 71 364 80 636 79 435 81 476
9437 11.869729526891042 -8.64529571586686 37.143145770612179 233 209 189 0.2658051570286884 71 370 79 438 81 763
9440 11.805779070513964 -9.3364449732274579 36.434177536012001 255 253 242 1.071464414948913 71 811 81 1185
9441 -0.050421953966774145 -19.297544489088885 34.465443465240185 251 254 253 1.8161350717632803 78 588 77 7
9442 -2.3363536823929469 -18.220066210159981 33.395237255844791 65 79 83 1.1327484189981998 76 1120 78 596 77 16
9443 -0.52862573050971351 -17.242746087723333 34.225154363306551 226 236 240 0.92419939895127901 76 759 78 620 77 38
9444 -1.1486341457060558 -17.502481925802353 36.055506412631424 62 84 94 0.49657983773836967 71 0 77 48
9445 -0.84200318419464337 -17.601067384022208 36.773178763842481 0 0 0 0.33536442870134925 73 528 75 537
9449 -0.73008509255246357 -13.722208809729862 37.391296091294208 216 220 221 1.283067343087418 48 632 75 158 77 100
9451 -1.4575100548167546 -13.294453597260343 38.400097299414696 120 126 124 1.0344150979993514 44 1026 70 690 82 102 77 112 83 699
9452 -3.7241118385907259 -13.248748905484023 38.812708835767381 243 255 255 0.050041411369059478 71 311 77 113
9453 6.0974297501169907 -10.327460755995414 36.524389573738027 250 242 232 0.4010396032631367 80 602 82 187 77 142
9454 -19.378706970332313 -13.101265912601132 43.34191438416287 49 61 52 1.7585781106395013 70 701 77 143
9455 -12.768423288295779 -10.934291282885544 41.008420218642485 212 212 210 1.2045859164413997 80 139 77 160 79 100 84 66
9457 -14.716954575467209 -8.5432003940182693 41.029163235392765 195 197 199 0.10781033070784053 80 627 77 188
9458 -18.239785498055877 -7.718316485484217 40.787847384148769 148 149 145 0.55505217265590223 44 566 77 194 84 592 100 474 98 484 88 9
9459 -4.2268829868701063 -0.63215633571486596 14.470942190805866 169 180 182 1.2737826621088262 61 150 75 717 77 224
9460 -4.5451695584258367 -1.1469094492062204 20.48277215583818 160 179 183 2.7651047931340691 75 725 76 579 77 229
9461 -1.9265352719249813 0.10601541206394972 9.6659745304263609 172 187 194 1.1170247156893931 76 597 77 239
9462 -8.386227601644233 -1.9999101985669092 30.557581455140788 154 171 176 1.9875228689985489 58 182 77 240 56 193
9464 -5.4061040799136428 0.72767375350746233 6.1239022984410214 76 111 128 0.83354188398250151 75 404 77 256
9465 -5.0680355848896879 0.75748452692818102 6.0877173935298687 43 78 93 0.15973125588893908 76 608 77 258
9466 -4.9669681161631347 0.77678921978429871 6.0924348076447465 72 98 111 0.21565253932524908 76 609 77 260
9467 -3.2895595639963378 0.99572174810467262 5.4846287029045033 79 110 122 0.46124916413508099 75 431 77 273
9468 -3.1917972719936727 1.0287388709256797 5.4657590032949095 170 211 231 0.13634090641439497 75 434 77 277
9469 -3.0803395846107686 1.0457417113460898 5.4272780355067374 155 195 214 0.32343527825800955 75 435 77 279
9470 -3.2012727192658375 1.0802920789987558 5.7194095811123233 39 70 85 1.6155311092507176 75 436 77 280
9471 -2.2603969451685724 1.1668859207225217 5.4004141434578461 61 108 119 1.1352561196160358 75 449 77 291
9472 -5.2149632614358765 2.3656743484846192 6.0182390991415957 102 106 98 0.29008952277120625 75 785 77 305
9473 -2.1405782671255582 2.5422118324832703 6.1912026486799752 42 61 70 0.77691171500793277 76 700 77 306
9474 -4.8053752601811421 2.4528514766981266 5.2922854932841483 58 75 79 2.7878411285056282 76 698 77 311
9475 -13.658251331861388 16.245985473437322 49.040395362621631 65 87 90 0.67800501225056731 74 1352 77 320
9476 -3.6110693445767028 2.7366953302529442 5.0796881327240504 49 72 76 1.5664791030216574 76 719 77 326
9477 5.466041794324993 -15.471246785554097 28.917897799960734 225 199 174 2.842589827844419 78 25 77 348
9478 6.3752830206132467 -16.650666901516356 31.42231644562434 255 254 248 3.8975259197475145 78 1160 77 352
9479 -0.18055688757836424 -18.195492227093769 33.679026635871494 251 253 253 1.4210315370586866 78 598 77 354 76 729
9480 -0.68219082111297835 -16.784461440697232 32.174112728593386 230 235 235 1.2136013970013737 78 39 77 365
9481 -0.2703683491787644 -17.33347752665086 33.161729674789051 0 0 0 2.4329529417014353 75 507 78 609 76 738
9482 7.2180009175416613 -18.045457766183347 36.251144479254037 242 207 179 0.81490831220217874 69 10 77 379 79 575 81 647
9484 7.2158094997859132 -13.146775736979155 32.624956686468906 255 250 240 1.9719490133208217 80 534 82 573 77 411 79 47 81 403
9485 8.30855785251849 -12.568987798315103 31.729484941861589 236 218 198 1.9245364066263804 80 969 82 1069 77 412 79 598 81 682
9486 -3.4708637201911534 -13.999044466072373 38.649553187126976 214 221 220 0.51949553002445537 82 77 77 422 79 64 81 405
9487 8.619998020042166 -10.972731299198234 33.279404806055076 230 194 167 1.231182529440032 80 125 77 425 82 149 79 385 81 434
9488 -0.68131055670883733 -11.791810571238972 37.851484982877444 185 188 185 1.0757058294243513 78 221 77 436 79 87 84 95 83 62
9489 6.6610554475066097 -9.4787817755084873 33.978592635872694 142 136 126 1.0324216502185402 82 192 77 447 79 124 81 458
9490 6.7098362849672446 -9.6490673004574212 34.907631563018604 0 0 0 0.27822986562510854 70 734 82 194
9493 1.2520309445473561 -0.47521138104431254 23.165132076714087 0 0 0 1.8645143356003386 57 565 80 326
9494 -5.2541293346087956 0.63689200042212502 5.9403101773775786 78 96 103 0.95359713789257738 75 401 77 513
9495 -4.0257861721714487 0.90098967400641961 5.7686315355170494 179 229 250 0.82731438507474298 75 418 77 518
9496 -5.5269173779779859 0.95004957687325675 6.1367158788995733 125 143 142 0.072522543081656898 76 618 77 520
9497 -3.140408788113175 1.0713699351743777 5.4437234405658108 144 173 197 0.12752000655901979 75 438 77 522
9498 -2.7428045311016893 1.0776227041349189 5.0502005996755894 95 132 148 2.3911110977328538 61 1074 75 441 77 523
9499 -5.5567104837575121 1.0616172004625297 6.18009095475231 127 143 150 1.0219274601364705 60 251 77 525
9500 -2.326802275531215 1.1528589648890626 5.3776895426491027 68 111 123 1.2248173522321171 75 447 77 528
9501 -2.4652916236314861 1.1512597267158446 5.3456241200795853 228 255 255 0.8544128474521413 75 1010 77 529
9502 -5.5786048461243318 1.5952257399703378 6.2946109031544655 7 27 30 1.3285466885740311 76 676 77 539
9503 -4.6660440397107061 2.2064427058001459 6.4947661179073792 0 8 5 1.9058618481231602 75 779 76 1406 77 545
9504 -4.4818113467920462 2.5471042382822882 5.4184508805114406 60 78 84 0.11096722796749386 75 472 77 553
9505 -3.9725605843229617 2.6526688933242202 5.1330704894424999 67 91 100 2.1728696721728422 76 712 77 556
9506 -4.9169937031845601 2.7041534590358181 5.3645955620501793 76 87 85 0.93501681472174047 75 795 77 558
9507 -5.0084052392971898 2.7909248743194688 5.0842640390420115 124 116 102 0.68108813398614254 75 810 77 569
9508 6.0680196684192458 -15.898326325595171 28.903305834708878 234 201 174 2.9953476880711043 78 927 77 570
9509 -2.3963508791981045 -17.858647013486504 33.847982733813396 68 93 96 0.92143644429781901 76 1131 78 935 77 579
9511 -0.55864115141590687 -17.574511880261245 38.221230194853277 0 0 0 0.44601944506211616 76 1163 78 965 80 762
9512 7.9989150316214408 -13.671202903580451 33.971817478101265 255 252 236 1.4107383472672104 70 1011 71 554 77 608 79 597 81 681
9513 8.702109434895128 -10.062086064977773 33.04542943583224 237 210 189 1.0462491871972492 82 886 77 627 79 812 81 711 81 895
9519 4.5360833614202152 -6.0754335648221698 38.02476154859464 190 189 190 1.0936785164504124 77 680 79 694 81 785 83 773 71 395
9520 -2.7584990079409049 1.0927214019770719 6.1637244678222203 0 0 0 2.4898437435144851 75 770 76 1087
9521 -2.0722268624133346 1.2155034588396221 6.1867016027009241 235 254 255 0.9278492239132663 76 654 77 722
9522 -1.7851169302283978 1.2551361299442723 5.7470173267045102 219 252 255 0.036736743386443158 55 270 77 725
9523 -5.6500241774585094 1.4575427185681342 6.5102081135255903 5 24 28 0.6515628938289556 75 772 77 727 97 82 99 122
9524 -4.4919199661082612 2.218202639592695 6.2561478466254705 1 17 14 1.1164058515080306 76 688 77 731
9525 -3.3014043110836999 2.4031860286180224 4.1815729298928312 1 18 18 0.88024303918837166 76 720 77 738
9526 4.9624245417894786 -16.943243802877429 30.421617630795044 248 240 235 2.6084056413744632 78 1151 77 745
9527 -2.5593839552748929 -0.97765778469660047 3.6176781171917618 92 101 99 0.11326016859505705 76 192 77 747
9528 -3.2856880291546098 0.71067582664296325 0.77289277426980452 239 207 173 0.76194895438332622 75 1173 77 748
9529 6.3853523519664366 -15.240213634056598 28.470239439247965 239 207 173 2.9697654927533623 78 1154 77 749
9532 7.8826822806624675 -12.883161713939312 36.916514241925114 255 253 240 0.65302822643098501 69 609 71 570 79 800 81 883
9533 7.7390034387609719 -9.5293860089265578 34.629374142766935 199 192 185 0.56999587986627243 80 1001 77 787 79 968 81 1033
9534 7.7390034387609719 -9.5293860089265578 34.629374142766935 199 192 185 0.56999587986627243 80 1002 77 788 79 967 81 1032
9535 5.2423640668176112 -5.3538390542073735 38.221115918970526 207 204 204 1.07442517815786 77 828 79 868 81 950 83 1061
9536 4.6718662256544476 -4.3714510411487453 36.077251197563832 206 203 202 0.30114277114975219 77 835 79 882 81 957
9537 -5.5291262123906533 0.86151009585162919 6.1283898751012549 131 145 149 0.29039461970116653 76 1078 77 860
9538 -5.6950250130915148 2.0672714194311363 6.8134241460320437 63 93 107 1.6830827841013354 75 777 77 867 71 502
9539 -4.719226950493673 2.566442722440466 5.1611521999407124 75 99 107 0.89968743029343357 55 285 59 300 75 1027 77 878
9540 -1.3445094959017869 -17.65578754875251 32.676120713188588 141 182 210 1.3505592913943278 76 1588 78 1290 77 886
9542 5.3065152835535443 -16.201378466770564 32.426568351052751 252 254 255 2.5814483842757374 80 754 82 527 77 893 81 998
9544 10.352947403690246 -11.686638460907623 37.644947265888071 237 209 184 1.1663141340993444 71 1003 77 928 69 828 79 811 81 894
9545 6.7106226232110826 -11.158409478375495 40.60540974946263 235 216 202 1.2104935829491867 45 581 47 751 49 434 51 412 79 407 81 464
9546 3.34678143522647 -5.8116880592695859 39.318274038063691 206 199 194 0.67516008351685353 47 1022 77 993 79 863
9547 -5.5083306335068061 1.099722465419386 5.8981073811566533 7 30 30 1.411927949319234 58 1214 60 1173 77 1030
9548 -4.9979903290313379 2.5154959438155426 5.287994464580124 51 71 77 0.84954602418853065 55 624 57 599 59 633 75 1455 73 1271 77 1044 63 540 67 527
9550 9.884390453357863 -14.282260472306978 35.331481952577107 255 253 241 0.52748412607869943 71 985 77 1054 79 943 81 1139
9551 6.0255917692543948 -13.934995905239315 41.310416013741317 134 141 147 0.40155276262348849 45 411 79 1091 81 1270
9552 8.0091503955519148 -10.360290628597982 34.457331958751134 234 190 159 0.51259516876842615 80 1354 82 1455 77 1070
9554 5.5272348058283054 -9.9506190241206856 37.381006133319673 240 222 218 1.508108860025686 47 1483 73 1645 49 1398 83 1138
9555 6.5927856724045331 -7.3087206206257562 38.290035219569837 183 178 174 1.604179023118278 49 764 53 793 77 1105 79 1136 81 1201
9556 9.9592833034906025 -5.839170475462832 38.055966613145131 176 164 153 1.4787688630945377 49 1334 77 1113 79 1146 81 1218
9561 -0.69229840290032074 -10.977406794478222 31.458302026427933 0 0 0 1.7188409653709529 43 1392 44 17 45 915 47 1525
9563 7.2034624636545619 -8.1083100003373278 35.457770435777746 240 221 207 0.78884984076358777 72 1547 77 1246
9564 -13.491987915176363 -5.4635035529085112 41.689257421548895 168 178 180 2.3489965798580852 80 1379 77 1269 79 1324 81 1366 84 640
9565 -5.6323316956450817 0.17895528485514806 7.8352393491530128 160 172 176 1.2413690290652613 61 1259 77 1273
9566 -17.177137621580357 -3.2395191858907122 44.345838022284461 152 166 171 1.5136712965831935 78 1682 77 1274
9567 -11.49422316579173 -3.5319359115629405 43.495948123073887 164 179 184 0.73531711067826633 47 211 77 1285
9570 -2.578616713442119 2.6634080831607609 6.0664721586043457 79 99 100 0.50839618541193465 66 1106 77 1298
9572 -2.5093099321621573 0.5219489464440259 7.5106113278420956 0 0 0 1.2146170324441041 76 2095 64 1259
9573 6.0972082117271507 -12.27891926392113 33.01435771139721 253 255 255 0.78936492341244791 78 1741 77 1307
9574 -3.4677191327402292 2.5400860447387164 5.7143133187059014 79 92 90 0.61249132987890587 75 1688 76 2107 77 1319
9575 -5.556190471193764 2.858032360855232 6.7021598912509992 23 44 47 0.7257576909294261 75 1686 77 1323
9576 -5.0244052888727531 1.3610862353553572 6.2913469602329819 39 66 76 2.4843441149630827 75 1697 77 1329
9577 -0.44500411985403854 -16.479145133359257 35.515428635362525 167 179 180 1.5767029278769669 70 46 74 77 76 123 78 85 77 59 75 84 79 12 81 375
9578 -1.1892423740623086 -14.914555104219344 35.765899787692057 64 68 66 1.6630442389398494 72 56 75 120 77 72 74 764 80 36 81 388
9579 -0.17210536852326785 -17.754447577531373 36.449210524670754 92 96 98 1.9205589975514674 69 328 75 530 77 383 78 955 70 975 72 835 74 1136 76 1147 82 809 80 757
9580 7.9856699615799771 -14.413768357701661 34.999043425936684 237 202 177 1.5118637512246669 70 1689 72 1206 82 1321 80 1235 77 1176 78 1662 80 1336
9581 -5.5072216713188142 2.1963376379623654 5.9070200358294995 111 107 99 1.3836226226680599 55 864 69 1003 71 943 73 1579 58 871 60 819 57 589 59 866 75 1447 61 554 77 1164 68 572 63 753 67 514 65 421
9582 -18.356785151642125 -12.958005424950338 40.947730670622612 211 213 212 2.2463750635372222 70 1250 72 1230 74 1407 69 819 73 201 76 1454 75 880 75 1081 78 1204 77 128 70 141 78 235
9583 -17.440365891364785 -11.297692254462337 42.651260333519495 218 221 220 1.7812525649013695 70 1884 69 1439 73 1786 76 2052 75 1633 82 1531 71 1348 77 1263 76 2070 75 1651 78 1706 71 1369
9584 5.5867224391584749 -7.9658546513062527 37.915660993636784 105 120 130 1.063177418571625 52 841 49 472 69 417 71 375 77 663 79 167 81 167
9586 -2.822334920021603 -14.748173684974722 35.945533218546935 70 80 80 0.84436315797199057 72 862 82 1051 70 78 74 770 69 45 72 59 71 26 76 827 78 660 82 834 80 515 77 760 79 31 81 666
9587 -2.135488290529898 -17.814200766012053 34.542325454509978 79 103 114 2.1987230687316606 73 1284 75 1221 74 1561 76 1600 78 1299 77 892
9588 -3.4304684056290387 -14.40492741959509 38.144571362499022 103 110 112 2.1117322250248862 74 789 78 164 82 567 77 96 72 88 71 303 78 162 82 62 79 53
9589 -0.78374372509288603 -17.147648757193231 36.463597671901326 165 165 163 1.8740244083183417 73 531 75 538 70 629 74 1142 72 502 71 529 69 331 78 636 76 1159 82 817 80 760 77 586 79 578 81 643
9590 0.47421417120181086 -14.472666705821945 36.831095065292935 174 179 179 1.5936051835171392 73 1098 75 1067 70 1014 74 784 72 79 69 596 71 556 76 837 78 672 82 63 80 532 77 764 79 364 81 392
9592 -2.9134895345273932 -16.484382800059734 36.976346698034746 236 246 248 1.749283858961509 70 53 76 813 78 648 82 541 80 27 82 19 77 1233 72 1051 74 1380 76 1431 82 1182 80 950 79 778 79 1207 81 14 81 861
9593 5.8922643553511334 -13.66648667563808 38.657535779201751 129 127 122 2.0221365598681063 47 49 69 69 73 857 47 414 69 1042 71 569 78 1347 79 949 77 103 81 1014
9594 -5.6256234263300318 1.6622631231465412 6.3160695258445889 98 104 108 2.3563825630074193 69 762 59 256 75 1178 77 865 73 1041 76 1561
9595 -5.1544900807139795 2.7408897018647815 5.0912542508836829 84 93 92 2.2777604790631343 69 1245 71 1258 73 1702 75 1608 61 262 73 1279 77 881 71 513 75 1198 67 939
9596 2.27449147372488 -8.3840400167151543 37.857991492624741 168 176 183 1.7572254152656368 53 70 69 159 77 468 73 922 75 916 43 133 67 22 81 159
9597 -0.25732547628280117 -16.859469441150907 36.01211644772706 128 132 132 1.6413561522906255 75 826 77 587 70 982 74 1143 72 841 71 530 76 1160 78 962 82 819 80 948 79 580 81 859
9599 -1.0758941493881176 -16.608608200965936 37.638661841034526 95 108 108 1.7626564435927934 70 646 77 68 72 517 71 1162 78 110 77 398
9601 -2.1439171287691337 -7.5481222144971971 39.273820790721246 105 105 99 2.1072534493610156 70 287 48 259 44 167 74 368 75 671 52 833 73 322 80 233
9602 -0.89732358333239093 -17.519598951250362 36.038302860702849 44 50 50 2.3646022123487356 69 329 73 29 75 532 70 976 72 836 74 731 76 778 78 957 77 385
9603 5.9443649279173121 -6.6345661347217622 37.402326637782146 233 221 210 1.1088053222912762 78 1723 66 1156 77 1290 80 1467 82 1583 70 1926 72 1592 69 1484 71 1380 79 1328 84 1511 81 1403
9604 4.9077455763626343 -12.598279769426741 36.812682229632919 166 168 169 1.2385537368820367 77 1060 69 1048 71 993 73 1628 79 1088 81 1145
9605 5.7220328228846356 -10.099293502329511 35.528124498317553 239 221 199 1.6737582806199611 70 184 50 48 69 114 71 340 77 446 72 172 78 249 82 638 79 116 81 447
9606 -3.8391269235623962 0.96860000268282043 6.950854218973241 94 129 142 1.3713808723033578 75 423 77 519
9607 1.7625219325556079 3.2151233828256331 5.6790152711852944 5 14 14 2.1878822670002207 51 1492 49 1504 47 1594 43 1472 55 1465 50 1595 52 1552 54 1545 48 1831 56 1480 44 1547 42 1480 46 1148 45 982 41 1241 39 1278 58 1343 62 1304 70 1922 68 1224 64 1227 66 1139 100 1202
