# 3D point list with one line of data per point:
#   POINT3D_ID, X, Y, Z, R, G, B, ERROR, TRACK[] as (IMAGE_ID, POINT2D_IDX)
# Number of points: 293, mean track length: 8.943220998776555
18704 1.102696497918634 4.017411821675454 3.1216960017414364 12 23 17 1.7622708457729619 168 2680 172 3376 160 2491
18709 14.407523420413835 -20.654292500547811 85.745169517908735 166 165 164 1.1832523369260575 23 2378 24 2348 164 2425 159 2201
18710 6.4673307365200845 -19.109036008541747 99.067671278726266 0 0 0 2.8315518849092847 35 3149 166 2743
18712 -1.020132486630158 3.5531705522185026 6.141695629223018 32 51 53 0.47969195571167605 166 2759 170 3564 164 2450
18713 2.3063854389380869 3.6973006669366582 2.7268696341089989 17 24 16 3.2687014777671402 177 3829 164 2453
18716 0.21395446688074621 3.9239438133380755 2.5539251729909593 0 0 0 2.3805585356229928 173 3767 177 3831
18717 -25.383004917909805 -14.957779924974567 79.826953971652841 101 112 111 0.97251926264549649 38 3154 167 2204 164 2470
18718 -0.3317937872094382 2.5782864816060251 5.1320860963678818 232 231 234 1.7425018463875561 170 3611 172 3410 162 1953 166 2789
18719 -1.4078875966912441 3.4150400675069297 7.0895210582286845 0 0 0 0.68777639157505932 166 2790 168 2691 170 3637 164 2484
18720 -0.10690191480197977 3.8221185387091081 2.908493829687365 203 202 202 0.23113538476621975 166 2795 168 2679 170 3616 164 2488
18724 12.384930635633074 -1.6325145197379194 34.302964223439531 246 247 248 1.9203603716356645 167 2212 160 2503 162 1959 163 2451
18727 2.9337260929841475 3.9235221215944094 2.7870446301695453 189 174 159 0.60532881295850949 173 3799 164 2536
18728 32.735944466550116 -17.469568455193969 84.017856430587059 139 137 131 1.8819245086469707 26 1507 166 1347 22 1141 164 1348 160 1347 162 1039 159 1111 20 1075 161 613 19 999 18 595 12 509 12 816 10 736 8 452 8 698 9 406 7 409 7 611
18730 1.2190933006296061 3.9328780538052959 1.893569283468973 183 183 182 1.8119803619496544 165 2007 163 2348 175 3022 177 3538 167 2107
18731 19.254668069817306 -18.929764607113288 95.318340927495953 118 114 104 2.4417936984516322 167 100 174 702 170 698 27 316 23 712 164 162 29 1484 31 1438 165 888 173 1277 177 2144 183 2601 33 1532 27 1336 25 1100 23 1136 22 109 21 125 21 664 20 83 19 73 21 108 157 11 157 466 150 14 150 15 19 63 10 2 9 2
18732 -2.417751603441924 -0.51833344819278926 27.81622614274767 208 208 204 1.5748401977324753 176 364 178 926 168 1185 175 925 183 2168 169 1069 185 2253 171 1063 165 593 29 1128 31 1105 33 1654 35 1773 30 1335 34 1462 32 1351 28 1317 36 1560 186 1030 184 962 182 881 176 360 174 942 178 913 27 1018 26 1194 168 467 24 1036 38 2019 25 781 23 805 22 882 21 770 20 1167 160 459 159 386 161 713 19 765 158 713 158 1020 156 276 156 1300 157 584 18 700 17 623 16 652 15 645
18733 37.541161903820367 -16.900022393928143 90.320792732192871 107 103 101 0.92923706411662599 22 1574 26 2067 166 2130 164 1906 160 1871 162 1317 20 1571 159 1650 161 1145 19 1509 157 931 18 1338 17 1285 16 1175 15 1269 13 1252 14 1224 12 1224 10 1130 11 1075 8 1066 9 992 7 916
18734 0.27958461184083683 -1.2263001756786289 24.544618055889973 233 226 218 1.6678196251598754 166 1478 178 2387 174 2407 168 1560 173 2596 168 1859 164 1076 182 2393 184 1945 186 2581 38 2020 26 1578 24 341 22 864 167 1170 160 1090 162 70 158 175 161 956 159 1742 167 1469 154 907 154 1569 155 1160 157 1052
18735 12.307681969546321 -22.754762504501613 87.740329740704937 199 198 197 2.2064877085254246 25 79 28 169 23 7 164 52 163 74 165 838 173 1916 181 1936 185 2054 29 1427 33 1466 166 740 30 210 186 1741 174 584 27 1275 24 20 30 212 173 442 25 614 23 12 160 24 159 20 159 724
18736 31.547785286213632 -20.095821984061594 81.99020832605855 65 60 57 2.6674888949782383 163 1301 23 1481 164 1326 26 1492 166 729 26 1066 21 1021 21 1335 22 1383
18737 -20.478974437379705 -11.672640909289829 75.429886951840686 168 167 168 2.1994232686950763 29 235 31 223 173 587 33 285 27 211 25 112 164 1036 165 946 166 898 28 1618 38 425
18738 1.1174277198920717 -4.5689292737785285 24.191109787244361 58 74 70 0.79312815683934323 29 1486 30 1704 28 2036 27 1341 26 1802 24 1594 25 1104 185 1431 167 1098 183 1341 23 1151 22 1408 186 1877 164 1671 166 1368 172 2027 21 1364 160 1667 162 774 19 1262
18739 1.3121878842814807 3.8167369073008666 2.7469493787192119 105 104 102 1.2096237448356828 166 1643 168 1331 172 2553 182 1291 176 582 174 1234 178 1204 170 1137 164 1248 180 328 160 1566 156 1177 155 1265 153 1392
18740 -4.4523540422398895 2.5671912071538854 14.050542888585726 181 173 164 1.6619893721282897 173 823 167 423 163 561 186 1198 182 1078 184 1169 30 1380 173 1547 175 1028 177 1745 169 1180 171 1191 167 913 165 692 29 654 28 692 186 2095 184 2035 182 1928 172 922 24 1118
18741 -12.77595404773677 -6.0715646456438135 81.19386235026559 137 129 119 1.5717333103084361 166 2518 186 3745 29 2801 163 2250 165 1973 181 3524 183 3622 31 2658 171 2686 185 3811 169 2751 167 2071 33 2971 35 2977 30 2799 34 3040 32 2839 28 2728 36 3149 174 3863 27 2534 37 2880 26 2638 166 2622 24 2312 38 2969 25 2289 23 2252 22 2054 164 2217 21 2038 20 2041 160 2415 162 1799 161 1719 158 1784 179 1433
18742 31.264265385282201 -16.800509880931635 87.017697027972915 63 61 51 1.312677422750115 24 1332 26 1512 22 797 164 129 164 1657 166 2129 24 1965 20 1086 160 95 160 1875 159 762 19 668 158 592 158 1303 157 1150 18 24 17 545 16 5 16 1306 13 2 14 588 12 822 10 497 11 460 8 459 8 880 9 417 7 419
18743 -10.282618820515198 -19.170565797993344 86.22044815624163 203 205 205 2.7372492207509196 173 477 177 1379 185 567 33 232 166 1378 29 1869 175 1938 177 2117 35 2033 178 2298 164 1685 165 891 175 741 183 1246 185 1331 33 231 35 1006 161 1177 180 1284
18746 35.008167394916555 -19.044374039468551 87.45223248423487 77 74 70 1.4772181313844679 22 1561 26 1810 166 1771 164 1886 160 895 22 776 20 1331 162 1033 159 1623 161 876 19 1485 8 865 7 605
18747 16.566664979285523 -22.882097922347373 85.049305627543546 164 164 161 1.9006605534864458 163 2076 28 2436 182 3256 174 3082 178 3289 172 2907 170 3078 26 2220 24 1932 25 1981 23 1928 164 2056 182 499 27 184 25 90 163 42 23 16
18748 15.830642846156749 -25.300442667599107 86.94848279656847 124 125 120 0.92568754202181691 28 2234 166 2069 186 2878 184 2779 182 3018 176 2029 174 2708 178 2692 172 2393 170 2502 26 2006 168 1806 25 1694 164 6 28 141 178 501 168 221 180 1256 162 1251 161 1103
18750 1.2448839048502309 3.5271602825089494 2.0674011760990236 0 0 0 0.26413367187476688 173 1640 175 489
18751 0.1133227881398397 4.087425356928847 1.5772103222266094 17 18 15 0.31011991608176454 166 1202 164 794 160 869
18752 1.2309550946488386 4.2010898986588359 3.6299083006988293 161 172 173 0.74445157656908101 166 625 164 1251
18753 0.41098470532343578 3.9340941192245689 2.2871252872493484 171 179 182 0.031444777719452255 166 1651 164 1265
18755 6.5006855592462616 0.9554292718995685 17.051270483276884 198 206 212 0.36923500088813715 166 1912 164 1754 160 1962 162 1143 159 1745 156 1593 154 1698
18756 1.1767296284104298 3.2275793941205362 5.2782729823449479 14 20 16 0.20333262436167232 166 1962 164 1797
18758 -0.11772935320065045 4.1581912029460719 1.2374882053095684 140 148 147 0.04164694982618608 166 2466 164 2174
18759 1.0898873506730002 4.1284231140176173 1.5651935464268059 0 0 0 0.13281003882244233 165 2062 177 3399
18760 1.1180342433272907 4.0267889095610228 1.2897104210376353 174 177 176 2.142874267075074 166 2661 164 2333 160 2286 162 1903
18761 2.344309642585531 3.8343856549907884 3.0436845008946261 17 24 16 1.9768128535148508 169 2936 164 2454
18762 32.980617318819391 -20.042673697054763 83.388640348201164 139 139 136 1.1664557130731925 22 2128 166 2766 164 2465 162 1929 161 1768
18763 1.1310475375182574 4.0202704393564526 1.6220032203576338 6 13 11 0.033626344873486688 166 2798 164 2490
18764 -2.9677291513743698 1.8482870382164591 17.268539093135143 251 248 241 2.173928995992692 171 591 28 649 186 2060 27 569 38 805 25 420 22 402 33 1205 180 487 21 385 21 387 159 490 159 493 161 492 30 677 19 380 19 382 19 862
18765 -20.580121417177079 -3.8218794329685739 88.325285282248529 41 74 72 1.6187434599463821 34 2911 172 2952 35 2096 32 2350 28 1232 37 2785 23 1202 22 1759 31 2160 34 2518 36 2597 186 3566 184 3244 182 3328 178 3501 27 2263 24 2123 29 2582 38 2529 180 1334
18768 -2.5714789521208399 1.741415136633391 18.127508875427274 72 71 64 1.0427040164680039 167 883 169 549 168 1231 181 1615 27 562 38 806 22 381 31 615 33 646 34 783 26 548 29 626 25 415 30 673 36 863 176 431 178 1013 20 879 23 427 160 1177 162 607 161 486 174 1028 159 954 19 372 157 311 18 756 17 688 15 248
18770 0.25607544554411554 -24.472475989716138 80.870275077366458 137 135 127 1.2273179028054395 163 1631 171 1909 177 2616 181 2453 183 2500 185 2618 186 2861 34 2452 184 2769 182 2673 174 2692 178 2684 172 2384 27 1606 168 1803 29 59 163 1630 177 2617 181 2454 31 53 183 2501 185 2619 186 2862 28 26 184 2770 182 2674 178 2685 172 2385 27 20 27 1607 164 24
18771 -8.9846365636364194 0.82116620006502372 30.605577805520653 86 89 87 1.4346324624186739 30 1326 34 1448 32 1345 36 743 182 1882 23 1575 24 1843 27 1786 22 1642
18772 -11.240061990162859 -20.460284773197355 81.749232396844491 94 91 83 1.1523605585731911 29 860 163 915 166 775 173 1206 181 1206 183 438 31 831 33 871 30 124 32 1074 28 1017 36 365 186 622 184 603 182 1613 176 190 174 1572 178 576 172 1386 170 596 27 759 26 21 38 1230 25 574 164 140 29 2390 163 2100 165 1707 166 2351 173 2881 175 2328 181 2843 183 2948 185 3081 31 2352 33 2534 35 2620 30 2474 34 2716 32 2492 28 2415 36 2788 186 3262 184 3175 182 3040 176 2415 174 3089 178 3064 172 2713 170 2866 27 2200 26 2193 38 2675 164 2080 180 1271 160 957 160 2081 162 1531 179 953
18773 -25.469569609295093 -5.971006019320642 73.708146459561192 95 96 93 1.478091453444188 28 1663 32 1215 34 1325 36 1412 186 1909 184 1872 182 1774 174 1752 178 796 168 1142 38 506 29 341 166 330 167 236 169 384 171 406 173 624 177 697 181 631 185 732 31 325 33 359 35 450 30 335 32 329 28 326 36 558 186 885 184 852 182 779 174 832 178 791 27 921 37 366 168 409 24 202 164 1103 180 226
18774 2.8045537424022831 1.3815632919878309 17.401033549377651 143 150 151 1.514607120157998 173 1506 169 1621 171 1622 175 993 177 1711 167 1245 165 1037 31 1987 29 1711 33 1747 35 2206 183 2248 181 1612 185 2343 27 1518 185 3997 29 2887 31 2845 33 3079 30 2985 34 3252 32 3036 28 2926 36 3350 186 4093 184 3972 182 3797 176 3175 174 3909 27 2685 26 2704 24 2401 38 3169 25 2455 23 2396 22 2110 180 1919 21 2169 20 2089 160 2455 162 565 162 1883 161 726 158 1891 156 1911 154 2021 155 1812 153 1907 152 1842 150 1841 151 1760 16 1656 148 1557
18775 1.6590338270593294 -2.3669251258727795 24.285737666881204 237 251 252 0.96700155185916314 173 2013 175 1446 177 2194 169 1481 171 1483 167 1149 176 284 174 1730 178 1748 172 748 170 1615 27 985 168 333 25 753 23 764 181 1375 183 2102 185 2193 167 1150 165 944 166 893 163 273 29 1582 31 1537 35 1762 28 462 30 498 186 929 184 870 176 285 178 1749 27 984 33 1112 36 753 26 1157 168 332 25 752 23 763 22 835 164 321 180 1067 21 191 20 770 20 771 160 1060 160 1061 162 807 159 857 159 858 161 654 19 163 158 977 156 1078 179 749 154 868 155 627 153 1071 153 1072 18 656 17 76 16 605 16 606 15 581 15 582 13 565 13 566 14 615 14 616 12 846 12 847 10 518 10 519 11 780 11 781
18778 1.1830479892017289 2.668930233485999 4.9261194429535315 57 61 57 1.735254604954509 30 1924 32 1957 28 1879 184 2091 26 1674 168 1656 38 1617 156 1155 20 1511 150 1330 152 1128 142 1244 148 1031 140 1473 138 1283
18779 2.358656458974957 3.2998963404693091 5.3153272783834522 89 92 91 1.1908855072332749 30 1929 32 1973 28 1897 34 2115 36 2192 186 1340 184 1295 26 1345 168 680 170 1043 172 1695 24 1192 38 2104 25 1344 23 1667 22 575 27 1917 29 1778 21 1540 20 962 162 310 19 931 158 494 156 537 157 679 154 611 155 814 153 937 18 431 152 499 151 802 16 400 149 797 146 849 148 720 145 245 147 265
18780 8.6368509604044412 0.47336814171196978 18.962871247801171 209 217 222 1.5763755030416573 168 2114 164 1745 160 1946 159 1883 158 1542 157 1374 156 1584 150 1664 152 1665
18781 -25.770242060228803 -4.730306418968901 80.967133872232509 163 162 160 2.2388031319125883 29 1509 169 1964 173 1384 181 2072 31 1463 29 1510 169 1965 173 1383 181 2073 33 1540 30 1725 34 1889 32 1775 28 1682 28 1683 36 1432 186 1928 184 1892 184 1893 182 1786 166 2530 169 2613 171 2560 173 3374 175 2811 177 3324 181 3172 183 3255 185 3404 35 2839 32 2728 36 2994 182 1787 27 1348 27 1349 37 2778 26 1509 26 1510 168 1160 168 2380 24 1345 24 1346 38 1910 164 2229 29 2580 166 2529 167 1973 169 2612 171 2559 173 3373 175 2812 177 3325 181 3173 183 3254 185 3403 31 2551 33 2753 35 2838 30 2688 34 2906 32 2727 28 2726 36 2993 186 3316 27 2531 37 2777 26 2535 168 2379 24 2238 38 2849 164 2228 34 2907 38 2848
18783 3.0583973381082283 3.6980149310298995 2.3688628001512395 106 99 90 0.74087071132409132 174 3924 178 3796 168 2650 172 3416 180 1894
18785 1.2049045871982553 2.8250511931023663 4.9962710890114339 70 71 71 1.6495310181585841 169 647 175 1086 167 962 166 1606 165 712 163 1172 29 1294 176 1247 174 1939 178 1101 172 1673 27 1172 23 1003 25 963 21 957 159 1005 161 545
18786 3.6971981001256706 -15.787552395522086 87.531039262908365 79 80 76 1.7487280766174484 29 1914 31 2145 166 1830 173 2546 175 2618 177 2716 181 2544 183 2606 185 2719 33 1977 177 3299 30 1688 34 1852 28 2025 36 1995 36 2350 186 2501 184 2867 182 2764 176 1649 174 1670 28 1156 172 719 170 2150 27 1713 23 1495 22 116 164 228 24 908 29 318 31 967 166 839 183 1316 21 1352 162 1565 19 92 19 1259 158 954 180 1558 156 1234 179 1232 14 584
18787 31.81295900992146 -22.1846733430197 84.441901934203315 114 110 108 2.318745867118333 22 6 22 1079 165 9 166 1275 164 17 22 701 26 1039 164 14 161 5
18788 3.2428311054580976 3.2787203557284945 4.6643798164611709 187 187 178 1.0332345498104694 28 2188 186 2689 184 2120 182 2008 176 1278 174 1970 178 1988 172 1706 168 693 170 1796 181 2999 185 3244 162 670 177 3167 26 2187 156 1154 154 1450
18790 -2.9866682372220335 3.0832386482154628 9.5491968914786849 96 103 103 1.8902918068324659 182 2501 184 2997 186 3084 171 634 167 455 165 711 163 1567 181 2668 185 3217 183 3079 175 2092 177 2399 173 2191 169 2331 167 1557 167 1756 34 2612 30 2182 32 2612
18791 -2.1408077349908479 3.5990125922599896 7.2019354779005154 187 186 183 2.186490060250081 166 564 170 1767 168 1306 32 1948 36 2171 186 2142 184 2083 24 1714 38 1597 22 1700
18792 2.6317410569660979 2.3753766680087796 10.931893384860713 115 128 132 1.5249245329276888 183 2759 181 2257 173 2170 185 2873 175 1600 177 2375 169 2033 171 2026 173 2660 167 1528 166 1554 165 1068 29 2319 31 2284 33 2659 35 2738 28 2359 170 2254 167 1266 27 2148 26 2157 168 1625 24 1897 25 1894 23 2057 164 1168 175 2424 177 3126 166 2234 172 2973 170 3138 164 2001 21 1872 20 1804 160 2134 162 612 162 1426 176 451 159 1556 161 1014 19 1789 158 1245 156 1322 156 1736 155 1215 153 1509 152 1452 150 1463 151 1336 16 1262 146 1351 148 1128 144 1308 142 1622 145 1126 147 990 143 965
18793 4.7384194945157398 2.5888036972329909 8.2107113562367537 23 33 31 2.2124006492044876 177 2400 175 2095 163 1529 170 2948 172 2786 173 3013 181 2973 185 3475 183 3090 29 2338 31 2491 30 2617 34 2843 32 2649 36 2914 186 3625 182 3381 176 2515 174 3201 178 3178 27 2165 168 2144 38 2789 25 1912 164 1511 166 1566 162 908
18794 -0.10139474546906388 -2.8099461223007718 2.8750978307490387 248 254 254 0.36109800487742971 37 2739 180 26
18796 -3.5178936920517194 -4.9066717594342091 12.524150387036654 188 194 194 1.3468014447781462 37 165 180 119
18797 5.3709161157101235 -21.543248253715216 83.797058737497736 199 199 198 2.1453080684948516 26 968 29 173 31 174 170 586 180 148 160 67
18798 3.4626848658386873 -1.0772013190014784 1.1017011696094587 221 221 221 2.3732321959705218 175 1177 180 162
18799 -24.823639266012922 -7.1564897899226798 43.852588797122934 243 253 253 1.0115126536883412 32 140 34 1761 182 703 184 768 186 783 180 202 35 959 37 1555
18801 7.3463373288514138 -8.1865378774920678 83.515800549855399 99 101 98 0.96327701617060402 27 406 36 728 30 475 34 581 162 56 156 105 155 105
18802 1.5668122785820995 -2.0498479424908047 19.835900855532326 23 52 58 2.132076546993845 29 500 180 224
18803 0.6938374347025178 -1.1794317419448888 13.208965774422929 139 133 124 1.2280407000630826 29 535 180 236
18804 -5.4204146922163305 -1.4958684621473985 22.720130078023537 123 183 195 0.72189887691455412 25 263 180 241
18805 0.38001764156687162 -1.3041016037327529 30.75826698677611 52 170 201 1.6475217918494189 164 412 184 936 180 252 162 83
18807 -1.2986432058667394 -0.88452083721710584 29.420880804242003 190 161 137 1.5444991363928922 22 1627 23 799 176 353 20 1633 38 2330 160 1746 158 225 169 436
18808 2.7242293054980968 -0.082794344312048934 20.34039250219266 0 0 0 1.3867123674004773 37 1304 182 1874
18809 -4.8794744881179151 2.7056252998008583 14.10881122232473 0 0 0 0.76969819217583946 164 1198 168 1633 166 1119 170 1733
18812 -0.13344819354140705 3.007161799945155 5.7227383503930014 71 83 87 1.1762165095849821 35 1385 172 966 37 1861 162 676
18818 1.5386404405690872 2.5415678545376954 0.64477662398345548 162 163 159 0.88361253795402117 176 557 182 1286 180 327
18820 3.2805014693793768 -2.2730480480007409 1.8389709727637271 179 180 180 1.5111992194593826 183 217 180 340
18825 -25.386863076858301 -12.297756817029416 90.498466536989881 176 184 188 0.68122351242896251 163 321 180 456 165 152 179 141
18827 -6.1926885918296568 0.21486127434369556 29.040690665325599 35 137 163 0.16453554332335807 178 952 180 481
18828 -4.4428056838763617 1.5885696179740327 10.880211138412744 228 229 229 1.0374466518695091 177 1709 180 489
18829 -5.0914624852361445 2.8104872962322522 13.59539266716474 0 0 0 0.52047290740319563 172 1610 176 1792 178 2465 182 1938 184 2570 186 2104
18831 5.0600451829256352 1.6908285364872708 2.2968965802439598 182 194 192 2.5464800284334759 184 1310 180 514
18834 4.3118002873754371 1.3026548833539331 0.26673761222564141 117 122 122 0.44068849021785317 176 453 180 518
18836 4.4569964555743047 3.2725636716179745 3.6331355171970565 128 138 141 2.1837467970834856 173 1621 183 1763 180 523 181 1725 179 670
18839 12.617083068956893 -27.863495787245999 83.12793629141018 0 0 0 1.5168316041459811 29 64 33 144 177 1280 31 1305 183 1135 185 1241
18841 -30.276781020830114 -12.47346315090177 53.500239388944216 156 155 151 0.34762261164979891 36 1815 38 1723 180 634
18842 -26.233535258683943 -5.229581215743484 41.512368211186001 229 225 225 0.76948160538663002 37 1569 182 2329 180 666
18843 -2.2869253679195682 1.5547395245440243 19.04082065504263 0 0 0 0.51394988262248142 31 609 38 2032 29 1175
18845 -5.1321034889772177 2.8123926957057388 10.308299698683712 181 164 149 0.82573179368832461 171 1205 182 2866 180 733
18847 0.0093871870445402239 2.2937473259895218 2.8360910237202268 221 228 234 0.9600158381269045 168 621 180 745 182 1166
18849 -1.1983338780450241 3.6424845191986157 5.341419002615293 158 162 164 0.31123829683475407 181 1701 183 1741 179 663
18852 -27.288200277030626 -16.813592788002897 49.631540491396109 146 142 135 1.7984127353399155 172 2358 178 2654 181 2430 182 2661 184 2759 176 1463 183 2487 180 797 179 546
18853 -26.51658736354868 -14.645201328463106 44.049380163399796 133 134 127 0.67178650918235605 178 2656 182 2666 184 2762 186 2849 180 800
18855 17.903106600233059 -8.8869415299597225 91.535019489391331 112 105 94 0.60421758766876155 166 2184 180 847 164 1948 162 1108
18856 0.25055532318198354 -1.372326914814967 29.812133400943168 252 252 248 1.1680618315144797 174 3156 178 3130 184 2919 186 3017 180 866 176 2698
18858 -5.4449427840974032 3.3773797323497257 11.347451249088566 222 220 221 2.174764277774655 35 2491 37 2438 179 838
18860 5.724195962317105 2.6375605164760594 6.8535972513878409 0 0 0 1.4952698700009899 34 1018 173 2199 186 1299
18861 -2.1098439292887843 3.6584857179295627 6.3607221193817347 80 90 89 0.58835617962540021 178 2492 182 2513 180 947
18862 -2.093677851715658 3.6534532920842966 6.3418838291932911 80 90 89 0.72981213739581574 178 2491 182 2514 184 3022 180 948
18864 -25.122825853614479 -35.254738429630464 81.058088274946442 170 170 172 0.30706092880060598 171 2129 175 2188 180 963
18866 -26.068025821119473 -13.877580968518053 50.278466899920808 162 168 167 0.90494716142142739 37 1921 38 2144 176 2392 182 3035 180 1018 35 2306 172 2695 177 2643 181 2496 183 2542 185 3069 179 714
18867 17.791669559991231 -21.155152992758911 102.86300461757885 144 137 130 1.4242568415241783 27 2250 33 2573 183 3220 161 1161 179 728
18868 1.4571134656160656 -4.3809232747758422 23.827881144137748 43 61 61 1.3218613419056613 181 2548 180 1038 183 2618 21 1582 20 1554 179 731 155 1312 153 1435
18871 8.3510897162572899 -1.1574077653293808 27.101000660600231 0 0 0 1.5840688175635567 173 2962 175 2386 182 3337 184 3467
18872 -7.0938093783208496 -0.85195882468387873 32.273730322878336 0 0 0 1.439931353852592 177 2757 182 2811 172 2084 170 2601
18873 7.9946790840873625 -0.94334273789913303 27.014339134931493 0 0 0 0.95056207000676374 31 2216 177 3331 181 2908 183 3022 185 3156 29 2258 33 2371 171 2256 179 1020
18874 3.050413268892032 -0.69836809805727107 28.992725026692337 144 160 167 0.6716291670283473 178 3137 182 3111 180 1093
18879 -1.0965086040590064 3.7873594339204226 4.8838527437991699 146 148 143 1.7301846752314989 30 2847 164 1816 166 2268 180 1190
18880 1.3509842115102884 3.4879595122023899 4.8561527575129366 235 237 238 1.5715125429118206 182 1235 12 1433 148 1166 142 1652 146 362 140 1673 139 1507 135 1111 10 1330
18882 -3.576628548661926 -31.486368588823723 86.0772743883266 162 162 162 0.8986826557793085 169 2197 170 2786 181 3045 183 3154 185 3002 180 1227 179 895
18883 6.7422789938518637 -31.479087886040286 90.887623567973222 177 177 177 2.1562302157201176 33 2229 180 1233 169 1890 181 2770 179 901
18884 6.6054520874403506 -30.977532562084601 89.458719185025444 177 177 177 1.8599380073337617 33 2228 180 1234 169 1889 181 2769
18885 14.524750799953349 -26.143685013032485 79.834046060189507 155 156 156 1.8481482531838067 166 2018 180 1241 169 1906 175 2263
18887 2.7930362374004485 -3.8321518670784562 13.760481304187644 164 165 162 2.4770799485089752 171 1455 180 1283
18888 -14.524385497884895 -17.460474739611449 80.711610774192977 139 139 137 0.96889748777179219 25 2144 180 1289 23 2113 162 1561 179 967
18889 -24.032110072293047 -15.494977613952653 83.208194234271659 70 82 83 0.69284221109714272 24 2102 29 2563 180 1296
18893 2.1826870984459332 -2.2028257984288833 30.779655264148413 107 103 97 0.2422245407571178 177 2208 180 1325
18894 3.9035877320076362 -0.58871209264476065 22.181884805080859 0 0 0 2.439891468114971 165 1771 178 3357 176 2701 163 1992
18896 3.7247830891441587 0.43196173770918506 2.1366167664138058 135 147 149 0.093172835181778976 175 1465 180 1380
18897 -2.9440648799727245 2.2198526389288897 16.000658227025454 227 232 230 0.65235284783511061 178 3372 180 1381
18898 6.4315787155418409 1.8805617573836702 14.383390761797234 125 135 134 0.3314673144802871 34 3074 180 1389
18900 5.2361149180787203 7.1368479024946367 21.963706609858161 154 161 162 1.6219748411225816 37 2489 180 1422
18902 5.4327625664071855 2.5407106668947805 4.5231582845984635 0 0 0 1.0233582599427107 176 1249 184 3308
18906 4.6627134962395207 3.2023115920759548 4.9400617621519975 0 0 0 0.21151130192546261 173 3410 177 3516 175 2844
18907 4.6538308513225148 3.1957088020300404 4.9222914546266168 0 0 0 0.58687343109012868 173 3409 177 3515 175 2845 179 1330
18909 4.729500685520919 3.2754908586659477 3.6483847353804886 21 31 23 1.574043156570393 174 3787 182 3553 184 3703 180 1452 158 1722
18913 -10.747035192536089 -33.395855055001633 76.240330056708345 195 193 194 0.10929983107278032 168 2431 180 1460
18914 -7.0634819445046277 -33.570050695710151 78.820363140721241 151 154 153 0.96789178385270447 168 2194 170 3031 183 3375 180 1464 173 3097 174 3298 179 1137
18915 -14.106630497498264 -33.437895477815999 80.157620111560973 148 148 148 0.9722436823695022 169 2565 183 3377 180 1466 179 1143
18916 1.1316026601401734 -34.59920526407555 84.845065025689522 159 159 159 2.3489922934873735 171 2378 185 3278 180 1468 172 2609 174 2980 179 1141
18917 3.4707455842514667 -2.4119736139802459 6.2118504433955675 0 0 0 0.81732232503992686 171 2649 175 2910
18918 9.6475699871485308 -18.719762965168496 76.90917216869984 191 185 180 1.8619047185005217 27 2388 186 3268 182 3043 161 1341
18919 7.4400689254492258 -2.9255836832900566 25.05337479589782 0 0 0 1.4322835441371367 29 2607 182 3307 184 3629 186 3558 31 2192
18920 1.1200011370482195 -2.1379432748108185 24.179770714576453 0 0 0 1.0269760518890076 25 2396 177 1498 23 2336 21 2159
18922 0.20269251270664873 -0.94083912275561321 29.207780551203125 255 254 245 0.48850543012227704 176 3015 178 3681 184 3644 186 3758 180 1583
18924 -0.52440347026749057 -0.67922211398084831 26.436990532988272 255 252 242 0.33246686530893504 178 3502 182 3494 180 1588
18925 -7.1056770964684706 0.012894902214313018 30.004216749191158 195 255 255 0.84179897122455627 178 3689 181 3371 180 1593
18926 3.6665158391663133 1.5642967758486326 14.813142509365065 0 0 0 1.8503019560651535 35 3015 37 3018 178 3516
18927 4.8287096761909583 2.9440370286945052 5.910164455550234 0 0 0 3.1872783123450255 177 3376 182 3530
18932 1.3144197062757539 3.5776709936614486 3.7691612142522106 48 50 47 0.29551459959931164 184 3859 180 1654
18936 11.620192406189815 -22.481595260173506 57.989973209563452 212 216 215 1.92592091412833 177 3577 181 3450 182 3714 184 3888 185 3737 186 3850 180 1683
18937 1.0817972160326812 -4.1518326810575035 24.466474544082622 185 191 194 1.1493245393099383 181 3523 180 1758 179 1432
18938 8.2784432638437888 -2.6366509400911222 27.823722542995235 77 77 71 1.9640178082728754 25 2046 182 3486 180 1761 151 1280 19 1344 146 1141 149 1337 9 1028 148 1210
18939 -12.485932731834499 1.7297304247885297 25.551596900057472 160 160 160 1.0715488244819631 178 3513 182 3665 184 3820 186 3951 180 1779
18941 -3.5366071847108134 2.5214570375616674 13.800211666502324 224 228 231 0.57591839272066903 181 3551 184 3831 186 3959 180 1787
18942 4.7866604352908109 2.4918489310194261 7.7913312773211691 44 59 55 1.2729284307854449 183 3659 185 3844 180 1799
18943 3.0176452143546197 3.2793420586660083 4.8136218197413543 140 151 153 0.43449021488395267 178 3710 182 3690 184 3948 180 1814
18944 4.7153724886382182 3.2745668849836087 4.0046883257025296 136 142 140 1.0462081112588661 174 3593 180 1817 162 1736 158 1720
18945 4.6524349959805633 3.436913092111479 3.7142699576440781 134 134 132 0.24257676937662825 177 3387 179 1489
18946 2.2025687358887853 3.734468749397502 2.6749490066336197 23 33 29 0.62544889046462515 172 3380 176 3147 180 1819
18949 -8.6303257009620413 1.8610191238253517 16.81120973237233 253 250 248 1.2196261477973722 181 3547 184 3929 186 4051 179 1455
18951 4.7419394672309707 2.9127230929273131 5.8999584512677909 45 50 45 0.41661905241108255 174 3769 180 1889
18952 -1.0677105535209592 3.4568120124846731 4.8281090358512859 192 190 183 1.2712358224680307 164 2451 180 1891
18953 -7.3206571801099791 -1.2016485084215687 32.816290872186251 137 151 151 0.95352826358341947 173 3684 175 3098 180 1912
18954 2.4008467805707117 -0.85472345875830302 22.242936344314959 0 0 0 1.6473899792232292 37 3058 38 3129
18955 6.3457610091286192 1.07808132670024 16.306689691491943 142 155 159 0.44674365915712994 178 3781 182 3799 180 1920
18956 6.142286800961748 1.1034047650920424 14.477254418368778 0 0 0 1.3556900601564648 177 3819 178 3782 181 3648 183 3767 179 1571
18957 2.3951746758359818 3.4248807889419179 3.603220519033433 47 52 46 0.40807953677472808 182 3835 184 4011 180 1927
18960 -9.1846921741430201 -8.8919505090351869 85.292814471507327 28 37 38 1.3868718412755248 33 3068 182 3818 180 1942 32 3031 34 3248 36 3346 38 3163 162 495
18961 -1.0233943827981777 -2.1194201316465837 31.344446853323845 255 254 255 1.4206870335353903 38 3193 176 3168 180 1945
18962 0.35639823296714956 1.0220387131205209 11.200838593968081 0 0 0 1.5376417920067746 181 3680 184 4023 186 4138
18966 -0.14321476894243848 3.5845299492032288 4.657421044703403 129 133 128 0.74376272568998358 178 3830 182 3831 184 4008 180 1957
18967 4.2774092482965616 2.3906997030542505 8.7108310183582489 194 196 187 0.51280352538025276 176 3229 178 3869 182 3849 180 1972
18968 -0.45831634376761754 3.3068607337041382 4.9097498844807745 0 0 0 2.3300890290704435 164 2517 184 4030
18970 4.1982371722069072 2.8470551555322117 6.6560177342757205 0 0 0 0.61756557940275947 181 3712 184 4037
18972 0.40911634384089912 4.1566375836649918 5.8279303460031935 0 0 0 1.2282355458456942 164 2534 181 3713 183 3832 166 2833 179 1643
18973 5.2308716503113732 3.3294149076629478 4.3774133072560275 149 158 155 0.60368206433938865 182 3863 184 4041 180 1986
18974 -2.8164141205472788 -2.2373276354462481 24.288412418967024 72 69 60 1.7937987619733358 181 3715 182 3868 180 1990
18977 1.6936049867622556 3.8902227454998783 2.8528846970276107 164 165 160 0.18227266573376594 174 3987 180 1996
18978 4.0505541444902846 3.2722918314029008 2.8814596890174871 142 142 142 2.1112807400681084 174 3985 181 3726 179 1656
18979 4.0973450614101479 3.3791346966486939 3.0817160199063904 134 136 133 1.4561337097546982 181 3725 180 2002 179 1655
18980 0.57272093562592807 2.7962138117991695 4.9517488202504421 0 7 3 1.6815078569136053 182 3882 186 4163 180 2005 160 2521 162 1981 158 1955 154 2083 156 1982
18981 -23.161042274523552 -29.891088358268274 78.780867808806732 109 120 121 0.92145475339861915 166 5 35 6 180 82 166 2 181 203 183 230 36 9 175 604 185 325 169 276 186 381 184 325 182 256 176 762 174 289 178 329 172 331 170 327 168 126
18982 -0.020755348410760238 2.9286502931015441 5.2745272195273607 72 84 83 1.8994857754509313 34 986 32 867 36 1031 184 2089 180 316 38 931 178 1097 176 485 162 675 170 1005 158 517
18983 1.3534406433703745 3.5250329998158718 5.126350255610876 108 111 110 1.9774434795478726 30 887 34 1040 38 976 180 321 181 1714 185 3241 183 2794 169 1251 173 1618 175 1104 167 986 166 1155 165 728 35 2267 172 1705 172 1011 164 663 170 1077 182 1224 160 720 162 684 161 1061
18986 3.1749800403890722 3.1195130452576398 5.8852230146590614 210 180 154 0.63458732808935303 176 1822 174 2497 178 1964 180 747 186 3409 30 1482 34 2112 32 1531 28 1461 36 2189 186 1323 184 2604 182 1989 26 1334 24 1179 38 1635 22 1323 154 1034
18987 2.9872968415476717 3.429865984920264 4.4501202284299488 147 150 144 1.3506857283571185 181 3724 173 3798 175 3215 177 3891 168 2712 180 1995 183 3839 184 4053 179 1654
18988 2.4400667682159294 3.3628951220111518 5.0317158894870095 38 48 47 1.269757645874277 182 3533 186 3658 181 3408 173 3415 185 3688 175 2840 177 3513 169 2659 171 2594 167 2088 166 2640 165 1990 163 2335 176 2875 174 3584 178 3532 172 3114 170 3455 168 2508 164 2317 166 2439 180 1644 160 2264 162 1740 161 1650 159 2026 158 1727 179 1326
18989 14.478236693337672 -25.59247606110624 82.685418654034748 215 215 215 1.3984112169882448 28 2806 166 2670 184 3899 182 3728 176 3107 174 3841 178 3757 172 3332 170 3524 27 2603 168 2572 180 1846 171 2786 186 4024 184 3900 182 3729 173 3666 171 2785 175 3079
18990 5.4063397244852895 0.42449038824768731 21.6195808185904 216 219 220 1.5658164981338987 173 3382 175 2823 177 3498 169 2624 171 2696 181 3542 183 3645 185 3932 167 1978 166 2525 35 3119 180 1777 182 3664 176 2850 174 3557 178 3510 179 1450
18991 5.3706527232923378 2.222981340852288 8.6480050035868281 220 218 216 1.5756578581402156 176 3227 174 3960 178 3879 180 1981 186 4139 182 3858 184 4035 179 1638
18992 1.2351034067931534 3.6841478805538967 3.966528766907865 25 28 24 0.86701599544124963 172 3372 176 3046 186 3813 184 3860 180 1653 168 2612 170 3463 160 2352 166 2733 164 2405 162 1821
18993 4.1718206524045263 2.7404411526944137 6.285771574176704 129 134 132 2.3820249700655931 181 3711 185 4037 183 3828 32 3081 34 3300 180 1983 182 3860 184 4036 186 4141 179 1641
18995 1.1755900517917961 1.3099465796234602 9.9642244330839649 205 208 211 1.3465791025591438 181 3628 185 3976 30 2989 32 3041 28 2902 31 2820 180 1884 186 4056 182 3761 184 3931 179 1553
18996 3.4876124028537361 3.6752021003712856 2.629727584861945 50 50 49 0.99927746153946906 175 2860 182 3557 180 1823 164 2028
18997 1.1115342689654653 1.9870507978436878 5.0990713807338164 100 102 103 1.3774333556528067 181 2970 180 1166 182 3373 184 3522
18999 4.6183324147259865 2.9221900767025479 5.8588142031548918 23 32 32 1.4214857149631184 183 3340 184 3558 181 3258 185 3499 30 2758 186 3802 184 3683 182 3408 172 3109 176 2872 174 3447 166 2428 170 3265 168 2302 168 2402 164 2147 180 1433 31 2513 33 2699 27 2365 25 2126
19000 5.7365423893804337 2.6100952029287701 6.9872381187085644 225 232 235 1.1568840655556891 176 1814 174 1933 178 1956 180 945 36 2475 184 2086 26 1672 159 950 161 478 157 616 155 741
19001 -26.79456784358025 -4.015905348435532 45.521087965840103 46 67 64 1.4567022245455548 30 2290 32 2326 34 2218 35 2037 36 2329 186 2978 184 2890 37 2015 38 1862 180 1065 182 3309 186 3544 178 3336 184 3442 37 2568 38 2686
19004 2.4474276430322521 3.6915276529436856 2.6534010028917754 117 126 123 2.2090525112581481 173 1635 175 1125 177 1836 169 1739 171 2082 167 1326 163 1214 173 949 172 2205 164 716 165 752 180 525 174 1235 178 1209 160 760 162 354 158 560
19006 -0.14108695310794375 3.634229919497292 5.0321849739206446 120 120 119 1.5965030033838115 176 528 174 1969 168 709 172 1704 164 695 180 952 170 3164 172 3124 176 2541 178 2885 168 2413 186 3110 184 3309 182 2904
19008 4.9982317114666124 1.8809122640268372 11.858616137320583 132 133 136 1.2840356421947141 181 3219 186 3785 182 3364 176 2505 174 3184 178 3160 180 1139
19009 4.7816632045958425 3.0752220795694978 4.6905513468884834 27 31 28 1.9790493821060744 185 3698 30 2767 28 2699 186 3662 26 2511 180 1448 182 2538 176 2234 174 2506 178 2891 184 3696 179 1333 181 3416
19010 4.5886217654542287 3.1257107877452475 4.8262741631865325 18 27 25 1.4164285744178666 181 3413 185 3696 30 2764 183 3505 32 2815 28 2698 186 3810 182 3540 176 2880 174 3582 178 3538 180 1445 166 2434 172 3116 170 3451 168 2408 164 2151 184 3693
19011 -1.1874349338883947 3.7847097777693617 5.1273888966975916 39 45 44 1.281113134004441 166 2454 170 3286 178 3402 172 2991 168 2417 164 2166 180 1437 182 3532 184 3689
19012 4.6781339927655665 3.016435485060692 5.8661541869351339 159 162 163 1.4813664011379553 176 1824 174 2895 178 2875 172 2536 168 1925 180 1434 176 2737 174 3450 178 3399
19013 1.1331773087480559 2.0319597685823703 5.5943351573698354 217 232 242 1.547944795617225 181 3394 185 3673 31 2485 35 2906 29 2513 37 2831 23 1890 180 1415 176 2857 174 3569 178 3382 172 3096 21 1737 158 1711
19014 -1.0547910686155655 3.7538593687879493 5.2054525446415809 49 54 52 0.99683746004069207 182 3415 184 3565 166 2549 170 3284 172 3118 176 2739 178 3400 168 2416 164 2247 180 1185 20 1006 156 1763
19016 1.1425678389242522 1.9855573000144344 5.8970583951416264 218 234 241 1.7794624183429135 181 3232 32 2787 36 3062 186 3614 184 3518 182 3160 38 2778 180 1414 174 3438 176 2512 178 3171 172 2974 168 1266 183 3314 20 930 185 3469 37 2828 154 1442 18 794
19017 14.850882024578697 -31.746037822091047 81.505865368354833 220 217 218 0.75390696274041147 180 972 170 1953 172 1839 174 2623 178 2610 182 2599 184 2222 186 2789 184 2700 170 2426 172 2301 168 1397
19018 -34.91389758528878 5.3521394699180629 76.655471147769461 212 220 221 1.6561894198542431 33 1629 37 1196 180 898 31 1547 32 1326 35 1742
19019 -0.0069354724356139597 2.9105140904190376 5.2606292453616668 102 117 117 1.0835211766138773 174 1111 176 484 178 1096 180 315 34 987 32 868 184 2090 38 932
19020 0.019027290988606421 2.8494891163628977 5.1313596984880361 28 35 34 1.1998133770639487 173 1592 175 439 177 970 180 510 38 1612 174 1110
19021 -31.42171556104147 -22.449589324087519 62.534203086745684 177 173 168 2.1011290897155481 176 1447 181 2405 182 2148 183 1897 186 1605 178 2169 184 2283 183 284 185 1224 177 327 172 1260 170 1348 180 590 178 379 182 339 172 375 186 1607 176 1449 170 375 180 591 184 2280 186 2352 182 2145 179 387
19022 2.2723107555729225 -1.7866374170102839 24.630216820505449 85 90 93 1.9088493137754807 184 3809 185 3817 22 2063 21 2118 186 3936 20 2049 19 2059 153 1876 183 3624
19024 13.433223740419816 -26.358158944170214 76.572888377540849 114 112 112 1.7407992194592901 181 3465 185 3754 169 2837 171 2775 175 3070 173 3655 173 3490 174 3831 176 3098 178 3750 182 3720 184 3894 186 4019 172 3324 170 3516 168 2553 180 1841 177 3743 179 1378
19025 0.81752531483875868 1.8617313576222694 16.106001749058368 175 175 173 1.5611595835387067 178 3515 176 3030 29 2733 31 2769 33 3000 35 3121 30 2905 185 3833 183 3648 34 3167 32 2958 28 2855 36 3273 186 3956 184 3826 182 3670 27 2571 26 2668 24 2331 25 2335 23 2289 22 2078 180 1784 21 2070 20 2065 19 2079 153 1836 18 1821 17 1752 151 1681 149 1767 15 1647 13 1626 11 1518 9 1368 10 1503 7 1212 5 939
19028 1.8154173515504379 2.953872857974325 8.807860383415445 203 198 192 1.3056690246851888 34 3285 36 3379 186 4134 184 4028 182 3851 37 3130 38 3198 180 1974 174 3967 178 3870 179 1639
19029 7.6806862549457797 -3.2898742521049256 26.991335604626737 49 64 62 2.0644709780084991 173 1350 174 801 180 212 21 729 27 1003 181 2880 183 3238 185 3127 24 991 160 1005 179 740 150 1392 151 29 161 373 148 17
19030 0.76047085959902683 -0.77774817984823552 7.5779677804398498 74 94 96 3.1595662327414464 29 560 180 468
19031 -1.7101490851552783 -3.1045886220619421 5.8506063549539986 140 137 130 1.1765447428290228 34 1139 180 600
19033 -9.750267541386421 -5.8624192700076376 29.962089274508116 127 132 130 2.3713121220195021 185 637 180 1298
19034 -5.1566971688241745 2.9907226174716715 10.318847573531889 228 228 228 0.22926914624217715 171 2471 180 1412
19035 2.4650909021268927 2.9749938074631479 7.203993707210409 46 52 50 0.66808515750656439 36 3333 38 3146 180 1805 179 1468
19036 6.2052397133204611 1.8014341180604649 12.293411332282803 163 172 177 0.29691324272700326 176 3208 180 1952
19037 2.6870416517184981 -18.655421924408135 84.944426065481395 181 170 162 1.0830686488378709 29 232 31 919 172 646 27 842 23 44 184 649 21 6 183 472 185 576 154 1140 155 868 25 633 30 1137 178 625 160 958 182 1654 24 817 26 1002
19038 25.467883195316006 -20.746483692969612 83.491614932501619 170 170 166 1.8306456781126419 163 53 21 10 25 164 160 2
19042 29.199202103138859 -22.86389674373622 96.10174395318225 105 106 100 1.2713584126327091 25 197 27 904 163 83 165 33 21 29 173 1228 159 16
19043 43.098614389620657 -26.015767279229372 105.49909374561567 91 83 69 1.4956820213640551 23 667 25 704 163 40 21 38 19 1
19048 -6.126365761447544 -14.400905090922263 82.716541718261681 82 79 72 0.19898083623708906 25 150 31 266 33 321 21 98
19049 4.1996567384187751 -3.2418616359752366 12.559282250547657 124 113 100 0.075716484082941543 26 273 21 126
19050 0.57470367640531861 -14.872572874298916 84.5060626277902 168 163 159 1.0624120958278271 31 300 21 129 19 88 156 49 157 41 155 47 18 18 17 14 16 1
19051 24.585817462864931 -15.909542553685901 84.732557139712313 155 140 132 1.0956349280541271 166 1377 21 143 162 766 19 113 17 20 11 15
19052 34.183517883144241 -17.54969926593294 89.89165468307452 113 114 100 2.4327941100773502 26 281 164 121 21 146 18 21 146 406
19053 -16.505058122649306 -8.2756009656248004 79.752093680279131 66 79 77 0.1940714069818128 184 825 21 154
19055 51.202962347325318 -15.426292756107488 109.64112226462537 72 61 45 1.6878431480204792 163 198 21 163 19 696 13 44 11 52 9 59 5 25 5 28
19057 -1.6246783366446078 -3.0148534983680579 34.918313454985373 0 0 0 0.57370208031090275 26 319 34 1943
19058 16.095312842393444 -8.9586232683707046 93.78636854650432 105 101 93 0.99887074806242671 28 463 170 777 21 177 153 91 150 84
19060 13.560036199994508 -7.054609249577946 88.622468186428591 134 130 122 1.1547096960851404 30 541 21 205 24 998 32 1329 28 1288 20 781 19 182 156 109 154 130 153 132 34 638 18 670 152 705 17 107 150 120 151 562 16 107 14 632 12 97 10 539
19061 -6.7318573317532362 -1.3575417734703528 29.064758124834459 107 154 150 1.3283020068671991 175 280 21 214
19062 -6.5471093921097481 -0.66753454680085578 28.257844984679164 184 249 252 2.2894411494722355 181 740 21 225
19063 2.2603906553400757 -1.3126782067375622 23.89996707348331 122 133 136 0.98373137954639367 22 262 24 351 21 227 19 220 151 163 8 90
19064 26.521671558515472 -4.2515746870963564 81.621782343775848 126 138 136 2.0400259732245356 166 1481 21 238 175 1512 162 823
19065 2.2202726929007053 -1.0918515203688328 28.502452313769638 100 107 109 2.1364070626938876 23 305 32 573 184 950 21 241 19 236 154 252 153 236 151 210
19067 2.4201837565050237 -0.96971925115357216 23.657192220759697 78 83 82 1.5833272085983683 26 436 16 134 22 281 15 100 13 126 14 121 11 540 8 102 9 137 9 491
19068 5.9301168429974371 -1.2096025872140386 29.775159427096952 0 0 0 1.0707701673675263 24 389 36 1588 148 145 12 128 15 117
19070 31.724381618333926 -3.3567709489763518 87.427093299469007 248 243 237 0.64125732020531312 163 1474 21 258
19071 -0.76156575850426411 -0.47503215403139415 5.156423103639872 191 195 192 2.8205239075597257 168 2363 21 270
19073 7.9691399640079759 -1.0595106416712581 28.395168400944119 12 219 242 1.8315160598497937 177 770 183 1534 184 1958 21 275 157 95 19 259 151 112
19074 4.3742970059820205 -0.53058907433934066 31.865653148040426 249 246 240 2.0123776481324467 25 359 21 287 152 205
19075 5.645948332402547 -0.64788573967960206 28.587241191751925 137 141 140 0.83086941000283421 23 843 25 365 21 288 155 170 153 205 152 156
19079 29.207795375470408 2.7790569949648471 88.307310463770563 209 211 211 0.76969661913629017 166 425 21 336
19080 1.6561984739024314 0.70641183409981001 20.916778497467007 201 202 202 1.3262478386962091 25 389 21 339 149 292
19082 1.7548677420270429 1.0382843695590356 20.173993538110928 192 193 194 0.28263695212379936 25 410 21 352
19083 11.110933250975009 7.4698843371121253 89.380456864624776 184 184 185 1.5614127142977827 163 515 21 362
19087 1.6106075937595432 1.7855817187621055 15.605064442170523 189 189 188 0.65082676432530018 32 720 21 408 19 390 18 759 156 350 158 335
19088 -2.8417989110426465 2.2434949161770112 15.000917036915736 204 204 202 0.75997132020533109 31 642 21 418 20 399 19 885
19089 -4.3635369394816346 2.4322873873031732 14.446933858262531 255 253 239 0.53014806649308144 27 605 33 668 21 425
19090 -4.1352679328243065 2.7313982161826149 13.687587869331583 194 196 194 0.076010882243326416 27 624 21 436
19093 -2.2247614878874096 3.9776347374355101 10.974089850308859 168 166 167 2.2463065689423578 185 4022 21 468
19095 -3.7441388764228467 4.4050096281092213 11.439313227418371 72 71 70 0.16853661306614506 186 1244 21 476
19096 -2.0459764959644446 3.3265897367692254 7.7447895580793675 211 204 198 0.76413998332505628 17 398 13 357 11 358 9 587 5 259 19 486 3 668 1 586
19098 -1.0320070060445361 3.3867745862941163 7.5779065506832799 103 101 89 0.3149688904468268 23 522 21 490 19 912
19104 -2.2242788181857347 3.5186091776496391 6.4847630384566726 231 234 234 0.89067368698712568 23 536 21 515 19 520 17 445 15 379 13 401 11 684 9 622
19105 -0.87856662060310864 3.3984652920272849 6.2243919645728232 27 29 18 1.3503581292154869 29 742 21 520
19106 -4.4904308189251543 12.695498574216748 21.715741418679045 142 145 137 2.9231798160796005 171 694 21 523
19107 -2.3984520706955501 3.58370148344481 6.1547792833491197 128 129 125 1.0570896105825283 23 996 21 526 17 1242
19108 -0.023893756890441542 2.9521590136165874 5.0776185006551238 105 107 107 1.6737303619087747 25 539 21 530 19 525 23 552 17 436
19109 -10.193634082116494 30.733888049614951 49.751749457048923 118 118 117 2.2590081851765573 184 2133 21 532
19110 -2.4404600941399193 3.6555166212099102 5.7841748386434642 160 161 159 1.3591863952598664 23 554 21 537 15 779 13 1222 15 1045
19112 -2.1656546926763394 3.7057274633728392 5.4394423338756512 180 176 174 1.2010783203622539 21 543 17 507 19 563 23 559 15 463 13 469
19114 -2.0274001542575668 3.7146529095099114 5.3726447549788299 168 163 159 1.3370421426786947 23 564 21 550 19 571 15 467 13 795
19115 -1.9301261711093021 3.6815199845325481 5.1567606667261483 174 175 172 0.20423154322416731 23 574 21 551
19116 -0.96948726005280372 3.6613895094237812 5.0586011199021446 128 128 121 0.11597013568284618 25 548 21 554
19117 -2.3229054616830522 3.8387342683410193 5.267245672620338 159 161 156 0.56407523366887746 23 580 21 556 15 491
19118 -0.76581791216926198 3.7382335895547918 4.8037678227245566 185 163 144 0.95754221807054662 22 626 24 1206 20 1015 18 881 16 786 14 1010
19123 1.2350515454552786 3.5935247722321937 3.8776390786499735 62 63 63 1.2241875391086401 168 736 162 345
19125 -4.1213936923702379 12.282416780846974 13.352287677489596 0 0 0 1.5424266054154554 22 652 32 948
19126 -0.97097080059273289 3.764321407797012 4.158629598798715 68 66 58 1.0481220348263964 21 572 171 686
19131 32.466182549846273 -20.11334179867335 81.003088439854679 121 108 95 2.9224012008916929 163 37 164 33 21 611
19134 50.968786507417519 -25.150449694925694 103.01466783765299 91 82 71 1.5586970053272997 163 825 21 643 19 611
19138 50.696652956619502 -23.560445044920385 112.99110106188988 141 125 111 1.9154060312617762 163 883 21 687 17 2 10 7 8 19 7 12
19139 47.744115925821703 -21.883156800594833 104.18371542246305 55 49 34 1.2869735150907284 25 1121 163 882 165 38 21 688 19 106
19140 38.466006347980702 -20.136264480698603 104.17792084638154 103 102 90 1.1015898956374608 163 132 21 693 17 17 16 6 13 3
19141 31.411560279385267 -17.361693835415132 92.306985429129767 140 134 126 1.7002458604096613 24 184 25 231 26 279 21 695 19 114 157 3 13 8
19142 56.404919039297297 -15.03843358573808 118.12680859449047 45 36 23 1.52847370422676 25 773 163 213 165 504 21 723 19 149 17 62 15 48 13 57
19143 -0.69625627155926928 -1.4789426869333571 13.012059088833347 164 152 144 1.4318204595807087 34 1974 21 728
19144 27.290823726659589 -10.238945329963903 105.26048569030533 122 117 113 2.4715432883842703 33 1644 171 1494 181 2052 185 2181 21 734 29 538 151 50 149 47 14 74 12 82 8 76 9 472 6 61
19148 -14.711504681272894 -0.79601679830466643 71.379363639659644 4 100 108 2.1135441857545905 28 1274 35 1743 21 763
19150 10.835563870602932 -1.4053931089459544 29.001038519593035 248 244 239 0.97028841788965725 24 1667 19 759 145 564
19151 2.6414532487173039 -0.54678850828617565 29.201907170580562 60 86 88 1.1476146753140668 182 888 184 981 21 790 20 277 159 352 163 381 19 277 155 668 17 177 150 820 151 639 16 655 15 148 13 172 14 148 12 614 10 124
19154 7.8771286903564901 -0.36163865103276471 24.627812406305477 129 137 135 0.97246727306843928 23 1282 25 837 21 812 155 143 156 129 153 166 152 111 149 122 149 602 146 496 144 148
19156 7.7621642150826089 -0.16246417102761462 23.227025844256914 122 129 126 1.0542825005718917 23 862 25 843 21 819 159 310 157 117 155 151 152 116 151 573 146 498 145 386
19158 34.916225122803532 0.59396384250851608 81.184876249252369 200 202 202 1.1096080581219121 164 436 21 822
19161 9.1058152237919394 0.65214592940534799 18.171763552135072 206 208 211 1.820043996892875 25 897 21 845 19 336 15 184 146 74 144 106 142 94 145 51 141 113
19162 48.601504483526547 8.7325456801020209 121.28844516099595 169 168 168 0.29359596005526895 173 2157 21 852
19164 10.603255706816348 2.4398765958821347 33.893382458090471 182 184 183 0.32601121372607517 177 1731 146 540
19166 37.470802246534511 8.5735540338954817 88.78065052623387 179 182 181 0.020938531921495793 166 1553 21 868
19176 1.1996412645607641 2.3680430775689381 4.8795371960335654 55 60 54 2.004993277560116 167 453 21 933 19 496 158 454 159 545 153 924 173 1581 18 401 151 411 148 417 149 425 150 525 144 484 146 322 142 526 138 884
19177 -0.1419649686656235 2.493016882194417 4.9549385953858351 89 87 82 0.82129256345019408 21 936 19 501
