-0.526796 -0.145454 0.296597 0.942688 0.260923 0.207985 0.000000
-0.426700 -0.218213 0.375369 0.808124 -0.237623 0.538953 0.000000
-0.441151 -0.163763 0.338595 -0.065355 -0.055015 -0.996344 0.000000
-0.443317 -0.139488 0.340890 -0.148211 0.557217 -0.817033 0.000000
-0.462312 -0.225472 0.438622 0.016775 -0.541345 -0.840633 0.000000
-0.447893 -0.115755 0.415334 0.976423 -0.034298 0.213125 0.000000
-0.423048 -0.231646 0.352360 0.983144 0.182125 0.016077 0.000000
-0.458988 -0.168460 0.338625 -0.063645 0.196411 -0.978454 0.000000
-0.499555 -0.311260 0.336444 0.023805 0.011738 0.999648 0.000000
-0.432111 -0.179239 0.389798 0.986521 -0.002408 0.163619 0.000000
-0.425375 -0.211853 0.360166 0.987439 0.042251 0.152246 0.000000
-0.423900 -0.310500 0.384827 -0.156928 -0.780065 -0.605700 0.000000
-0.427994 -0.261574 0.434470 0.987727 0.143573 0.061502 0.000000
-0.518043 -0.180108 0.307468 -0.609552 0.038022 -0.791833 0.000000
-0.430654 -0.160195 0.326662 0.928004 0.242703 0.282673 0.000000
-0.416723 -0.255489 0.335210 0.959093 0.113728 0.259241 0.000000
-0.423425 -0.221452 0.354281 0.974678 0.186533 -0.123321 0.000000
-0.514133 -0.326314 0.379203 0.680922 0.191649 0.706835 0.000000
-0.525600 -0.283854 0.424949 0.944821 0.104956 0.310317 0.000000
-0.525515 -0.134709 0.421705 -0.006150 0.705858 -0.708327 0.000000
-0.528117 -0.188485 0.328200 0.970679 0.163385 0.176316 0.000000
-0.436566 -0.162794 0.338545 0.327371 0.122457 0.936927 0.000000
-0.416777 -0.320062 0.368074 0.978416 -0.172449 -0.113859 0.000000
-0.426525 -0.201806 0.372330 0.963494 0.021315 0.266880 0.000000
-0.446646 -0.144397 0.337882 -0.023523 -0.156526 0.987394 0.000000
-0.553460 -0.152099 0.425982 -0.222099 -0.054150 -0.973519 0.000000
-0.424035 -0.200491 0.334777 0.934784 0.099530 0.340988 0.000000
-0.508752 -0.312892 0.336012 -0.016803 -0.110435 0.993741 0.000000
-0.525062 -0.166639 0.310782 0.601527 0.202178 0.772845 0.000000
-0.423743 -0.262566 0.346000 0.584368 -0.146710 0.798116 0.000000
-0.419230 -0.287753 0.354385 0.726721 0.612424 0.311149 0.000000
-0.414451 -0.277059 0.327857 0.991693 0.037316 0.123095 0.000000
-0.413469 -0.327282 0.346495 0.474019 0.143442 0.868752 0.000000
-0.422003 -0.242048 0.351646 0.954766 -0.143106 0.260658 0.000000
-0.440864 -0.127416 0.360884 0.989399 0.030652 0.141948 0.000000
-0.515842 -0.283972 0.333629 0.266952 0.217882 0.938757 0.000000
-0.529743 -0.259430 0.426778 0.893927 0.041336 0.446303 0.000000
-0.447097 -0.157896 0.437000 0.742446 0.206436 0.637306 0.000000
-0.524842 -0.317635 0.432727 0.807245 0.108071 0.580238 0.000000
-0.540206 -0.153997 0.331159 0.863297 -0.323486 0.387395 0.000000
-0.490666 -0.302222 0.327086 -0.621896 -0.674921 -0.397150 0.000000
-0.433918 -0.177850 0.395150 0.958418 0.116623 0.260450 0.000000
-0.440401 -0.143444 0.338494 0.265861 -0.090906 0.959716 0.000000
-0.430900 -0.220379 0.428347 0.946862 0.160318 0.278838 0.000000
-0.441228 -0.254000 0.444503 0.042134 -0.141627 -0.989023 0.000000
-0.533730 -0.203130 0.427242 -0.326740 0.149290 -0.933249 0.000000
-0.433075 -0.210078 0.425255 0.980164 0.130637 0.149040 0.000000
-0.514882 -0.333892 0.375628 0.953795 0.039677 0.297827 0.000000
-0.498079 -0.315196 0.336793 -0.007977 -0.034864 0.999360 0.000000
-0.526054 -0.193189 0.321171 0.952431 0.250652 0.173345 0.000000
-0.423938 -0.194372 0.330095 0.975619 0.161134 0.149009 0.000000
-0.441462 -0.117907 0.361970 0.982388 0.133870 0.130355 0.000000
-0.451946 -0.153773 0.337875 -0.071266 -0.034581 -0.996858 0.000000
-0.432016 -0.188853 0.388951 0.981653 0.143213 0.125886 0.000000
-0.412283 -0.321924 0.343523 0.674869 0.167292 0.718725 0.000000
-0.458656 -0.184393 0.338405 0.038687 -0.186000 0.981788 0.000000
-0.445582 -0.336423 0.337020 0.482621 0.797370 0.362322 0.000000
-0.427193 -0.305611 0.378517 -0.063469 -0.714836 -0.696406 0.000000
-0.500304 -0.281613 0.305260 -0.577628 -0.724379 -0.376326 0.000000
-0.543783 -0.206315 0.430001 -0.262207 -0.018248 -0.964839 0.000000
-0.524933 -0.309747 0.432551 0.844727 0.201690 0.495740 0.000000
-0.432447 -0.177223 0.339804 0.293954 0.235857 0.926263 0.000000
-0.408373 -0.326220 0.338184 0.842836 0.171945 0.509963 0.000000
-0.537443 -0.188854 0.428601 -0.050721 -0.062586 0.996750 0.000000
-0.449581 -0.120208 0.418596 0.974986 -0.036214 0.219296 0.000000
-0.471725 -0.211969 0.327829 0.785920 -0.463980 0.408721 0.000000
-0.429539 -0.256297 0.438805 0.941986 0.185006 0.280061 0.000000
-0.414375 -0.265207 0.329443 0.964979 0.070277 0.252738 0.000000
-0.527469 -0.138048 0.306179 0.926244 0.361487 -0.106765 0.000000
-0.516797 -0.174294 0.308373 0.618127 0.150075 0.771619 0.000000
-0.422151 -0.215690 0.332530 0.923676 0.150040 0.352576 0.000000
-0.448416 -0.137145 0.427805 0.937792 0.246113 0.244898 0.000000
-0.493312 -0.295927 0.322011 -0.634057 -0.632193 -0.445313 0.000000
-0.439182 -0.114841 0.325621 0.915031 0.369451 0.161939 0.000000
-0.524224 -0.175144 0.415438 -0.547922 -0.815176 -0.187801 0.000000
-0.425696 -0.258181 0.348058 0.545977 -0.352263 0.760145 0.000000
-0.442312 -0.122917 0.366893 0.990758 0.071852 0.115048 0.000000
-0.545676 -0.135467 0.425620 -0.005179 0.058887 0.998251 0.000000
-0.521434 -0.297825 0.415095 0.940050 0.165348 0.298272 0.000000
-0.416967 -0.249983 0.328635 0.960589 0.206302 0.186301 0.000000
-0.426721 -0.333340 0.411047 -0.341603 -0.338092 -0.876927 0.000000
-0.495400 -0.297862 0.329069 0.603476 0.648071 0.464565 0.000000
-0.516897 -0.338626 0.431362 -0.602403 -0.270490 -0.750963 0.000000
-0.456166 -0.233068 0.442094 0.174929 -0.154951 -0.972312 0.000000
-0.434739 -0.184935 0.400788 0.930829 -0.035718 0.363705 0.000000
-0.422572 -0.205033 0.327811 0.938361 0.230822 0.257292 0.000000
-0.445162 -0.129969 0.403732 0.998803 0.031921 0.037061 0.000000
-0.434140 -0.135605 0.319193 0.986387 0.121697 0.110593 0.000000
-0.459192 -0.114237 0.435421 -0.244086 -0.089573 -0.965608 0.000000
-0.524960 -0.127886 0.427530 -0.017254 0.368231 -0.929574 0.000000
-0.439699 -0.135998 0.349717 0.999126 -0.037909 0.017615 0.000000
-0.522860 -0.265143 0.333339 -0.011618 -0.042727 0.999019 0.000000
-0.437299 -0.180310 0.409789 0.821336 -0.257750 0.508893 0.000000
-0.407144 -0.336622 0.338079 0.846284 0.218568 0.485830 0.000000
-0.438029 -0.126020 0.340929 0.979927 0.059142 0.190382 0.000000
-0.447073 -0.120385 0.408902 0.984222 0.070280 0.162379 0.000000
-0.437730 -0.310847 0.421274 0.768925 0.260983 -0.583645 0.000000
-0.440192 -0.339977 0.339997 0.482621 0.797370 0.362322 0.000000
-0.415816 -0.302790 0.366784 0.932633 0.314727 0.176470 0.000000
-0.525822 -0.175098 0.420257 -0.548280 -0.812299 -0.198894 0.000000
-0.413224 -0.324502 0.345546 0.542571 0.189719 0.818305 0.000000
-0.528592 -0.183313 0.328685 0.977704 0.105057 0.181821 0.000000
-0.421567 -0.327929 0.410397 -0.268823 -0.108727 -0.957033 0.000000
-0.522774 -0.290066 0.333628 -0.062761 -0.003129 -0.998024 0.000000
-0.422810 -0.210587 0.333658 0.918278 0.158753 0.362715 0.000000
-0.507519 -0.264077 0.325568 0.958050 -0.154312 0.241510 0.000000
-0.551442 -0.284676 0.368954 0.590867 0.190271 -0.784011 0.000000
-0.530382 -0.140836 0.317367 0.924456 0.283556 0.254905 0.000000
-0.415310 -0.270862 0.332844 0.972707 0.075815 0.219301 0.000000
-0.532566 -0.267518 0.434062 0.813134 0.196100 0.548049 0.000000
-0.436809 -0.190345 0.431929 0.945177 0.172041 0.277564 0.000000
-0.415770 -0.324596 0.396619 0.828355 0.528085 0.186960 0.000000
-0.433258 -0.156376 0.336378 0.588219 0.216270 0.779247 0.000000
-0.460383 -0.200939 0.329336 -0.492817 0.589318 -0.640184 0.000000
-0.426892 -0.207003 0.342021 0.647854 0.213669 0.731184 0.000000
-0.543808 -0.148859 0.410083 0.867161 -0.495740 -0.047684 0.000000
-0.430676 -0.334710 0.417500 0.768966 0.630643 -0.104784 0.000000
-0.425752 -0.162761 0.320306 0.837345 0.239403 0.491467 0.000000
-0.415361 -0.302120 0.362161 0.991639 0.118667 0.050692 0.000000
-0.442494 -0.180247 0.339337 -0.115189 0.078301 0.990253 0.000000
-0.438373 -0.253441 0.444561 -0.122091 -0.260928 -0.957607 0.000000
-0.450892 -0.184295 0.441453 -0.105229 -0.067503 -0.992154 0.000000
-0.467089 -0.205336 0.329551 0.626615 -0.622241 0.469223 0.000000
-0.408470 -0.304911 0.329981 0.843957 0.161775 0.511434 0.000000
-0.444077 -0.114903 0.372517 0.967340 0.175938 0.182481 0.000000
-0.497058 -0.125878 0.432091 0.112274 0.115030 -0.986997 0.000000
-0.426914 -0.217154 0.351173 0.879686 0.374887 -0.292596 0.000000
-0.439774 -0.302361 0.445618 0.142988 -0.002670 -0.989721 0.000000
-0.540348 -0.162854 0.410196 0.675615 0.710936 0.195229 0.000000
-0.525118 -0.288889 0.424494 0.975672 0.102958 0.193557 0.000000
-0.544654 -0.201506 0.429912 -0.149880 -0.116901 -0.981769 0.000000
-0.424643 -0.337036 0.413293 -0.295857 -0.637675 -0.711223 0.000000
-0.429001 -0.177088 0.338464 0.644417 0.207761 0.735909 0.000000
-0.427271 -0.281688 0.435849 0.988374 0.079216 0.129774 0.000000
-0.525869 -0.304813 0.427092 0.914461 0.201047 0.351201 0.000000
-0.461106 -0.194365 0.334501 0.339839 -0.388815 0.856348 0.000000
-0.537338 -0.165059 0.408974 0.625509 0.758004 0.184848 0.000000
-0.527584 -0.185831 0.428757 -0.018973 0.013705 0.999726 0.000000
-0.442056 -0.155876 0.420542 0.948947 0.223555 0.222539 0.000000
-0.434068 -0.130203 0.320246 0.976083 0.080847 0.201807 0.000000
-0.424933 -0.190421 0.330314 0.971108 0.185700 0.149885 0.000000
-0.515583 -0.337112 0.381282 0.936185 -0.110208 0.333785 0.000000
-0.446333 -0.114707 0.381946 0.968437 0.245199 0.044806 0.000000
-0.532415 -0.233145 0.415571 0.947449 0.256144 -0.191653 0.000000
-0.521251 -0.202644 0.314421 0.923755 0.328832 0.196331 0.000000
-0.446357 -0.225769 0.443509 0.182755 0.013391 -0.983067 0.000000
-0.419718 -0.310396 0.385230 -0.399873 -0.653568 -0.642612 0.000000
-0.416066 -0.319353 0.386297 0.931110 0.322381 0.170601 0.000000
-0.518274 -0.178720 0.417743 0.549711 0.804251 0.225826 0.000000
-0.527625 -0.284555 0.429448 0.893910 0.158061 0.419455 0.000000
-0.526089 -0.153404 0.299521 0.925113 0.372700 0.072536 0.000000
-0.426861 -0.222750 0.373860 0.780597 -0.143768 0.608276 0.000000
-0.531695 -0.198465 0.427433 0.058538 0.231694 -0.971026 0.000000
-0.424731 -0.195313 0.335265 0.900398 0.131771 0.414632 0.000000
-0.461095 -0.120076 0.435526 0.046891 0.023302 0.998628 0.000000
-0.436605 -0.126630 0.334315 0.978931 0.155819 0.131962 0.000000
-0.418008 -0.304141 0.376579 0.621784 0.464706 0.630422 0.000000
-0.442614 -0.177765 0.417585 0.972491 -0.231107 0.029173 0.000000
-0.524786 -0.306882 0.429048 0.890279 0.212631 0.402730 0.000000
-0.425983 -0.248916 0.354385 -0.587214 0.421366 -0.691108 0.000000
-0.441651 -0.165971 0.421408 0.972614 0.118322 0.200053 0.000000
-0.414542 -0.270190 0.329342 0.977259 0.058619 0.203785 0.000000
-0.420579 -0.210070 0.328875 0.919588 0.220272 0.325328 0.000000
-0.438606 -0.170016 0.412148 0.981061 0.098097 0.167020 0.000000
-0.507150 -0.260485 0.326609 0.952096 -0.046021 0.302316 0.000000
-0.538884 -0.178499 0.427464 -0.059130 0.145126 0.987645 0.000000
-0.528710 -0.166191 0.314474 0.845977 0.224723 0.483552 0.000000
-0.438747 -0.158197 0.337981 0.265754 0.113814 0.957299 0.000000
-0.521442 -0.222066 0.366848 0.732131 0.550016 0.401829 0.000000
-0.524634 -0.257380 0.415537 0.825065 0.085534 0.558526 0.000000
-0.523177 -0.152399 0.293146 0.857794 0.404242 0.317455 0.000000
-0.468663 -0.212539 0.324534 0.757954 -0.520139 0.393651 0.000000
-0.438124 -0.180905 0.425352 0.936863 0.349341 -0.015758 0.000000
-0.419335 -0.339806 0.417067 0.167703 0.917615 0.360358 0.000000
-0.528684 -0.262015 0.423867 0.903935 0.061970 0.423157 0.000000
-0.548628 -0.186722 0.428603 -0.117856 -0.061576 -0.991120 0.000000
-0.419169 -0.235525 0.337007 0.986900 0.104834 0.122629 0.000000
-0.526304 -0.173157 0.413862 0.536410 0.823574 0.184364 0.000000
-0.439887 -0.177103 0.428685 0.974610 0.218915 0.047029 0.000000
-0.531276 -0.132017 0.427159 -0.027349 0.416924 -0.908530 0.000000
-0.523660 -0.309393 0.425865 0.933074 0.180078 0.311360 0.000000
-0.523775 -0.174136 0.412119 0.523640 0.830984 0.187797 0.000000
-0.440382 -0.117374 0.352428 0.972575 0.209651 0.100714 0.000000
-0.531772 -0.228296 0.425452 0.953926 0.118168 0.275794 0.000000
-0.429430 -0.197934 0.376752 0.953342 0.095731 0.286310 0.000000
-0.427940 -0.208103 0.377703 0.954132 -0.036168 0.297192 0.000000
-0.430976 -0.201322 0.390948 0.789721 -0.345464 0.506947 0.000000
-0.435712 -0.130789 0.329283 0.974983 0.184842 0.123458 0.000000
-0.440415 -0.249405 0.443756 0.021399 0.108460 0.993870 0.000000
-0.429869 -0.149748 0.320000 0.911207 0.227744 0.343270 0.000000
-0.414367 -0.323601 0.380725 0.989435 0.128537 -0.067065 0.000000
-0.541887 -0.317915 0.367981 0.760455 0.286313 -0.582866 0.000000
-0.554239 -0.274909 0.369217 0.754063 0.232426 -0.614303 0.000000
-0.438999 -0.164865 0.411367 0.987178 0.135672 0.084097 0.000000
-0.443300 -0.198498 0.442298 0.774544 0.112553 0.622426 0.000000
-0.418309 -0.336193 0.429216 0.953105 -0.200544 -0.226657 0.000000
-0.447475 -0.251443 0.443414 -0.051375 0.067076 0.996424 0.000000
-0.441502 -0.189092 0.340099 -0.189877 0.074023 0.979014 0.000000
-0.417488 -0.270890 0.343932 0.785439 0.146763 0.601287 0.000000
-0.466698 -0.203747 0.331660 0.608550 -0.531233 0.589455 0.000000
-0.525977 -0.182235 0.313374 0.792795 0.136886 0.593917 0.000000
-0.442497 -0.166430 0.431598 0.935284 0.268079 0.231034 0.000000
-0.532871 -0.239144 0.428824 0.818638 0.103139 0.564972 0.000000
-0.432128 -0.213622 0.345314 -0.535732 -0.405545 -0.740625 0.000000
-0.417866 -0.335558 0.410856 0.513758 0.482978 0.709073 0.000000
-0.522780 -0.177143 0.420979 -0.561184 -0.790970 -0.243800 0.000000
-0.437231 -0.120941 0.330252 0.968643 0.237356 0.073432 0.000000
-0.414874 -0.287118 0.334195 0.993955 0.076389 0.078855 0.000000
-0.489038 -0.305678 0.331542 -0.508392 -0.582127 -0.634560 0.000000
-0.527979 -0.142641 0.322754 -0.722959 -0.189679 -0.664344 0.000000
-0.458242 -0.194932 0.332300 0.298159 -0.540363 0.786835 0.000000
-0.530598 -0.139720 0.423829 -0.348173 0.848203 -0.399159 0.000000
-0.430719 -0.260110 0.349179 -0.395557 0.435706 -0.808514 0.000000
-0.529726 -0.170695 0.413940 0.554599 0.818049 0.152367 0.000000
-0.531883 -0.244618 0.428354 0.900518 0.193427 0.389428 0.000000
-0.540660 -0.307740 0.371484 0.765069 0.228508 -0.602041 0.000000
-0.530048 -0.172174 0.424270 0.398478 0.703945 0.587942 0.000000
-0.413588 -0.301878 0.345787 0.946964 0.032957 0.319645 0.000000
-0.424557 -0.296605 0.435460 0.980248 0.173120 0.095620 0.000000
-0.518735 -0.323974 0.427529 0.842690 0.364510 0.396239 0.000000
-0.428352 -0.231284 0.369821 0.746728 -0.403750 0.528567 0.000000
-0.523789 -0.149669 0.292881 0.848907 0.288287 0.442998 0.000000
-0.520349 -0.306059 0.335302 0.095336 0.141107 0.985393 0.000000
-0.468029 -0.178640 0.337581 0.162883 -0.013105 -0.986558 0.000000
-0.428599 -0.309055 0.447178 0.632040 0.160936 0.758040 0.000000
-0.427029 -0.268658 0.355136 0.794868 0.010908 -0.606685 0.000000
-0.431967 -0.155856 0.331376 0.917277 0.145708 0.370638 0.000000
-0.443116 -0.145340 0.405398 0.958696 0.271075 0.086138 0.000000
-0.412840 -0.302949 0.338767 0.974737 0.099897 0.199772 0.000000
-0.540801 -0.215329 0.429262 -0.378086 -0.118981 -0.918093 0.000000
-0.441417 -0.203060 0.442436 0.707579 0.160603 0.688141 0.000000
-0.451193 -0.190784 0.335851 0.240364 0.349124 -0.905725 0.000000
-0.432668 -0.148423 0.330154 0.971229 0.109670 0.211394 0.000000
-0.528098 -0.210261 0.364895 0.968732 0.233867 0.082854 0.000000
-0.446240 -0.114682 0.398957 0.991705 0.096311 -0.085114 0.000000
-0.415562 -0.297424 0.356621 0.989207 0.140560 -0.041387 0.000000
-0.432268 -0.319818 0.423684 0.840042 0.271170 -0.469889 0.000000
-0.449955 -0.176274 0.338201 -0.071990 -0.012828 0.997323 0.000000
-0.437728 -0.196901 0.434636 0.872592 0.154357 0.463418 0.000000
-0.506533 -0.291856 0.332864 0.353727 0.302295 0.885153 0.000000
-0.441876 -0.191642 0.404722 -0.447043 0.631951 -0.633081 0.000000
-0.430098 -0.307487 0.381525 -0.121374 -0.749609 -0.650657 0.000000
-0.431594 -0.188232 0.385039 0.965270 0.197068 0.171515 0.000000
-0.423859 -0.227064 0.358068 0.990778 0.116515 0.069168 0.000000
-0.514794 -0.288489 0.334309 0.174205 0.146884 0.973693 0.000000
-0.425945 -0.214068 0.362515 0.987000 0.078095 0.140474 0.000000
-0.436548 -0.188760 0.341048 -0.088212 0.061770 0.994185 0.000000
-0.434428 -0.135830 0.329253 0.977177 0.189996 0.095011 0.000000
-0.528650 -0.250430 0.329448 -0.014645 0.765123 0.643718 0.000000
-0.437383 -0.121286 0.337052 0.969204 0.200239 0.143343 0.000000
-0.445124 -0.151795 0.427265 0.967306 0.175882 0.182713 0.000000
-0.544774 -0.158907 0.419214 0.832589 0.248273 0.495133 0.000000
-0.473049 -0.221658 0.436938 -0.288012 -0.434086 -0.853591 0.000000
-0.419520 -0.241487 0.341508 0.973665 0.048169 0.222838 0.000000
-0.497489 -0.289075 0.320558 -0.524621 -0.690331 -0.498213 0.000000
-0.512016 -0.263257 0.331335 -0.651988 0.230292 -0.722411 0.000000
-0.507367 -0.275011 0.307729 0.749368 0.415779 0.515339 0.000000
-0.414156 -0.329010 0.385872 0.984028 0.171641 0.047196 0.000000
-0.428469 -0.297491 0.371548 0.072752 0.659088 0.748538 0.000000
-0.547903 -0.170866 0.425943 0.134160 0.252637 0.958215 0.000000
-0.415285 -0.313346 0.376656 0.973630 0.159216 0.163385 0.000000
-0.520951 -0.319310 0.377508 0.242801 0.258522 0.934994 0.000000
-0.509136 -0.276012 0.311815 0.834486 0.412719 0.365098 0.000000
-0.520936 -0.185438 0.310305 0.723775 -0.053492 0.687959 0.000000
-0.432329 -0.329768 0.417727 0.900685 0.419984 -0.111268 0.000000
-0.450358 -0.123477 0.418543 0.960776 0.055999 0.271611 0.000000
-0.478605 -0.334233 0.439765 0.441614 -0.661199 0.606459 0.000000
-0.469357 -0.131298 0.434694 -0.170678 0.043850 0.984351 0.000000
-0.485490 -0.204571 0.428106 -0.401493 -0.656724 -0.638371 0.000000
-0.509781 -0.307893 0.335984 -0.076007 0.106026 0.991454 0.000000
-0.470437 -0.322713 0.440783 0.505945 -0.461244 0.728885 0.000000
-0.420274 -0.298247 0.372228 -0.396774 -0.694396 -0.600321 0.000000
-0.431448 -0.193992 0.393228 0.890520 -0.109380 0.441599 0.000000
-0.451630 -0.116016 0.431750 0.833460 0.083869 0.546178 0.000000
-0.469325 -0.186754 0.336737 -0.141550 -0.017410 0.989778 0.000000
-0.445800 -0.125049 0.403159 0.997368 0.063843 0.034360 0.000000
-0.466906 -0.182562 0.337476 -0.139916 -0.034659 0.989557 0.000000
-0.527584 -0.261045 0.333340 -0.057101 0.044886 0.997359 0.000000
-0.548765 -0.294028 0.368703 0.646352 0.164663 -0.745061 0.000000
-0.421490 -0.303063 0.377173 0.325425 0.662062 0.675109 0.000000
-0.497580 -0.283726 0.305951 -0.444794 -0.830215 -0.336009 0.000000
-0.478694 -0.331087 0.430626 0.940957 0.304649 -0.147612 0.000000
-0.444367 -0.175170 0.338661 -0.072529 0.056497 0.995765 0.000000
-0.421157 -0.230840 0.342250 0.941527 0.190486 0.277925 0.000000
-0.482060 -0.330762 0.441789 -0.246721 0.375699 -0.893297 0.000000
-0.522515 -0.319371 0.431322 0.835749 0.176023 0.520134 0.000000
-0.535332 -0.153785 0.324920 0.733816 -0.255604 0.629429 0.000000
-0.431281 -0.226124 0.432768 0.959381 0.124906 0.252955 0.000000
-0.415928 -0.297313 0.351397 0.985558 0.142606 0.091318 0.000000
-0.438921 -0.133516 0.344120 0.971308 -0.207156 0.116825 0.000000
-0.526823 -0.264412 0.419150 0.905576 0.047534 0.421511 0.000000
-0.418692 -0.240085 0.331663 0.991677 0.030041 0.125201 0.000000
-0.423263 -0.199717 0.329972 0.963427 0.080695 0.255534 0.000000
-0.445841 -0.147637 0.424128 0.956480 0.158840 0.244778 0.000000
-0.411791 -0.311437 0.339523 0.965679 0.032563 0.257690 0.000000
-0.416554 -0.328817 0.347197 0.267234 0.069320 0.961135 0.000000
-0.469915 -0.208570 0.329005 0.723554 -0.547816 0.419961 0.000000
-0.425183 -0.270610 0.429154 0.993748 0.089678 0.066499 0.000000
-0.506698 -0.188627 0.426266 -0.458732 -0.835358 -0.302889 0.000000
-0.529341 -0.182696 0.338136 0.977327 0.158411 0.140488 0.000000
-0.443448 -0.132804 0.376195 0.990800 -0.099981 0.091208 0.000000
-0.469597 -0.203281 0.335817 0.499481 -0.440139 0.746188 0.000000
-0.528594 -0.247824 0.418062 0.902843 0.291528 0.316046 0.000000
-0.424318 -0.227471 0.368942 0.902487 -0.163324 0.398550 0.000000
-0.545925 -0.175369 0.427030 0.098204 0.250016 0.963249 0.000000
-0.405215 -0.319938 0.331165 0.790071 0.290464 0.539832 0.000000
-0.430423 -0.267621 0.443784 -0.566258 -0.049219 -0.822757 0.000000
-0.541496 -0.164155 0.420450 -0.553344 -0.654752 -0.514889 0.000000
-0.409591 -0.300504 0.330404 0.881622 0.333369 0.334076 0.000000
-0.507926 -0.287367 0.327870 0.702545 0.594461 0.391213 0.000000
-0.525845 -0.190042 0.428642 -0.060129 -0.046686 0.997098 0.000000
-0.522225 -0.179050 0.427099 0.429705 0.544713 0.720168 0.000000
-0.424316 -0.297025 0.430835 0.982457 0.183446 0.033551 0.000000
-0.488867 -0.132608 0.431350 0.060846 0.249570 -0.966443 0.000000
-0.520347 -0.259176 0.334071 0.002436 0.017748 0.999840 0.000000
-0.527077 -0.274169 0.424601 0.946639 0.136207 0.292101 0.000000
-0.406682 -0.325741 0.334139 0.852327 0.151134 0.500697 0.000000
-0.551603 -0.130546 0.424614 0.028227 0.193892 0.980617 0.000000
-0.508960 -0.263753 0.327792 0.857326 -0.231944 0.459558 0.000000
-0.448943 -0.234708 0.442819 -0.162391 0.022717 0.986465 0.000000
-0.547671 -0.145073 0.425563 0.190203 -0.178397 0.965400 0.000000
-0.444825 -0.129826 0.392186 0.966794 0.169462 0.191293 0.000000
-0.427152 -0.339111 0.416692 -0.297554 -0.902523 -0.311310 0.000000
-0.525899 -0.273401 0.420792 0.970187 0.079685 0.228883 0.000000
-0.414311 -0.334442 0.407348 0.797250 0.297585 0.525201 0.000000
-0.445487 -0.235057 0.443289 -0.150654 0.011342 0.988521 0.000000
-0.526307 -0.289352 0.429301 0.936076 0.171855 0.306965 0.000000
-0.518975 -0.128154 0.428067 -0.012151 -0.313914 0.949374 0.000000
-0.433432 -0.258252 0.445019 0.478117 0.163761 0.862894 0.000000
-0.442983 -0.129430 0.381999 0.992895 -0.026672 0.115966 0.000000
-0.416802 -0.322619 0.371246 0.972531 -0.117891 -0.200711 0.000000
-0.519377 -0.310985 0.335918 0.129525 0.087865 0.987676 0.000000
-0.425823 -0.212191 0.365758 0.987658 0.054048 0.147002 0.000000
-0.432466 -0.289149 0.446171 0.230175 -0.023447 0.972867 0.000000
-0.444478 -0.181743 0.415691 0.814200 -0.473473 0.336009 0.000000
-0.512999 -0.277317 0.326361 0.840208 0.369967 0.396453 0.000000
-0.417903 -0.313057 0.347613 0.883752 -0.297605 0.361129 0.000000
-0.414996 -0.286195 0.336877 0.989853 0.061605 0.128043 0.000000
-0.501212 -0.129661 0.430765 0.168671 0.213808 -0.962204 0.000000
-0.429273 -0.339230 0.420327 0.757059 0.647478 -0.087377 0.000000
-0.415093 -0.307926 0.372085 0.934965 0.237295 0.263690 0.000000
-0.428572 -0.256383 0.429244 0.994059 0.075871 0.078043 0.000000
-0.524675 -0.224595 0.373930 0.857804 0.350158 0.376247 0.000000
-0.515364 -0.303088 0.334450 0.025688 0.130973 0.991053 0.000000
-0.501149 -0.296021 0.333847 0.402283 0.533740 0.743835 0.000000
-0.512329 -0.324676 0.334695 0.344406 0.057066 0.937085 0.000000
-0.416285 -0.265830 0.334286 0.961656 0.078669 0.262734 0.000000
-0.414289 -0.329622 0.401252 0.940563 0.324496 0.100213 0.000000
-0.452747 -0.231202 0.441897 0.211198 -0.069459 -0.974972 0.000000
-0.541323 -0.162939 0.414382 0.761924 0.611980 0.212017 0.000000
-0.525859 -0.173116 0.312125 0.660497 0.111163 0.742554 0.000000
-0.456174 -0.114109 0.435483 0.410671 0.186700 0.892465 0.000000
-0.434621 -0.150916 0.336572 0.722258 0.059612 0.689050 0.000000
-0.433844 -0.219924 0.378199 -0.321604 0.455788 -0.829957 0.000000
-0.533459 -0.182011 0.428120 -0.091543 0.115158 0.989120 0.000000
-0.424657 -0.328957 0.411143 -0.203899 -0.183554 -0.961631 0.000000
-0.419533 -0.219865 0.327710 0.924947 0.079032 0.371789 0.000000
-0.514883 -0.183470 0.423523 -0.456308 -0.791985 -0.405639 0.000000
-0.544209 -0.148832 0.421134 0.691631 -0.461499 0.555576 0.000000
-0.413992 -0.275158 0.328780 0.984566 0.029167 0.172565 0.000000
-0.533165 -0.218220 0.421613 0.957550 0.235869 0.165725 0.000000
-0.429712 -0.172833 0.336414 0.850602 0.247499 0.463918 0.000000
-0.544248 -0.194646 0.427439 -0.114866 -0.079050 -0.990231 0.000000
-0.403387 -0.324345 0.331406 0.739192 0.176844 0.649862 0.000000
-0.418437 -0.317708 0.353034 0.974746 -0.160538 -0.155237 0.000000
-0.435119 -0.309860 0.423952 0.753758 0.299444 -0.584963 0.000000
-0.532738 -0.221023 0.418810 0.958571 0.149036 -0.242755 0.000000
-0.536276 -0.229937 0.429858 -0.640444 -0.121718 -0.758298 0.000000
-0.425989 -0.297286 0.441032 0.917671 0.093522 0.386177 0.000000
-0.511755 -0.298931 0.334122 -0.020177 0.128823 0.991462 0.000000
-0.449735 -0.126885 0.428521 0.966893 0.144946 0.210019 0.000000
-0.537431 -0.144411 0.415605 0.816514 -0.563091 -0.127412 0.000000
-0.524815 -0.270727 0.333178 0.030641 0.027243 0.999159 0.000000
-0.445779 -0.146676 0.427436 0.948093 0.195724 0.250624 0.000000
-0.523627 -0.261213 0.415613 0.834322 0.057887 0.548230 0.000000
-0.469698 -0.325790 0.438474 0.552551 -0.432184 0.712674 0.000000
-0.414129 -0.291023 0.326491 0.963250 0.243179 0.114076 0.000000
-0.428825 -0.217235 0.349284 0.842914 0.534486 -0.061812 0.000000
-0.446940 -0.159338 0.338232 0.060801 0.067532 0.995863 0.000000
-0.439548 -0.173755 0.338960 -0.083163 0.053293 0.995110 0.000000
-0.521368 -0.159651 0.301930 0.823435 0.446732 0.349838 0.000000
-0.524147 -0.298773 0.423804 0.942907 0.091418 0.320265 0.000000
-0.417782 -0.324374 0.367739 0.967797 -0.135886 -0.211904 0.000000
-0.520186 -0.321958 0.425486 0.875015 0.299877 0.380031 0.000000
-0.533716 -0.141776 0.322249 -0.680002 -0.195841 -0.706572 0.000000
-0.413423 -0.332095 0.404195 0.939021 0.184625 0.290092 0.000000
-0.514829 -0.323721 0.379180 -0.503507 -0.305386 -0.808220 0.000000
-0.507706 -0.285421 0.322019 -0.627431 -0.677795 -0.383307 0.000000
-0.424060 -0.301769 0.435312 0.976521 0.178459 0.120658 0.000000
-0.438809 -0.121745 0.340485 0.966494 0.182736 0.180266 0.000000
-0.511123 -0.312816 0.335881 -0.029943 -0.042728 0.998638 0.000000
-0.528685 -0.276682 0.334485 -0.066771 -0.143492 -0.987396 0.000000
-0.438112 -0.178376 0.339142 -0.044036 0.091565 0.994825 0.000000
-0.414712 -0.307855 0.366128 0.997252 0.070913 0.021455 0.000000
-0.415766 -0.313852 0.381917 0.900066 0.317847 0.298086 0.000000
-0.532532 -0.185253 0.428802 -0.069929 0.010302 0.997499 0.000000
-0.497728 -0.294154 0.325131 -0.590214 -0.673526 -0.444983 0.000000
-0.415402 -0.315105 0.362807 0.987568 -0.156110 -0.018442 0.000000
-0.415859 -0.318503 0.369992 0.984527 -0.133697 -0.113280 0.000000
-0.426104 -0.255107 0.349881 0.562233 -0.417732 0.713718 0.000000
-0.429126 -0.159879 0.322455 0.904662 0.222584 0.363377 0.000000
-0.439390 -0.115642 0.329917 0.947334 0.313183 0.066896 0.000000
-0.428863 -0.191173 0.340138 0.544979 0.129404 0.828404 0.000000
-0.426848 -0.277301 0.432300 0.985746 0.039766 0.163475 0.000000
-0.532230 -0.269357 0.333665 -0.028871 -0.060620 -0.997743 0.000000
-0.442415 -0.144887 0.418554 0.978202 0.123673 0.166810 0.000000
-0.539040 -0.220549 0.430065 0.521658 0.156201 0.838734 0.000000
-0.441398 -0.132586 0.365041 0.992381 0.080125 0.093591 0.000000
-0.521051 -0.180996 0.310428 0.589170 0.006929 0.807979 0.000000
-0.436504 -0.125615 0.329547 0.979259 0.150880 0.135230 0.000000
-0.436770 -0.118295 0.320650 0.937220 0.286625 0.198658 0.000000
-0.441015 -0.218909 0.443659 -0.430791 -0.057189 -0.900638 0.000000
-0.417533 -0.234657 0.326610 0.967765 0.022477 0.250850 0.000000
-0.482380 -0.126125 0.433303 -0.117710 -0.117259 0.986101 0.000000
-0.422077 -0.256922 0.347261 0.669526 -0.288610 0.684426 0.000000
-0.426872 -0.169253 0.322268 0.919526 0.194675 0.341429 0.000000
-0.444639 -0.156832 0.432234 0.915036 0.168051 0.366699 0.000000
-0.415663 -0.286547 0.341448 0.973282 0.152376 0.171765 0.000000
-0.449013 -0.131944 0.424295 0.949958 0.271400 0.154668 0.000000
-0.453549 -0.112654 0.435010 -0.573801 -0.392288 -0.718931 0.000000
-0.413864 -0.329246 0.389835 0.980441 0.190065 0.051103 0.000000
-0.450793 -0.122340 0.423700 0.987069 0.068255 0.145035 0.000000
-0.541036 -0.168255 0.425025 0.231496 0.461651 0.856322 0.000000
-0.481878 -0.333622 0.440811 0.241367 -0.387484 0.889718 0.000000
-0.414266 -0.312422 0.372272 0.999886 -0.007127 0.013279 0.000000
-0.415053 -0.318245 0.376872 0.999264 0.005518 -0.037973 0.000000
-0.526421 -0.279095 0.425373 0.926819 0.098310 0.362410 0.000000
-0.427680 -0.291705 0.445206 0.791067 0.124727 0.598879 0.000000
-0.426295 -0.318526 0.446715 0.748562 0.127519 0.650687 0.000000
-0.437742 -0.185983 0.425901 0.945522 0.270626 0.180971 0.000000
-0.447836 -0.140642 0.339624 0.092867 0.375393 -0.922202 0.000000
-0.443493 -0.172421 0.439876 0.631718 -0.032385 0.774522 0.000000
-0.416386 -0.270863 0.338238 0.967184 0.132364 0.216875 0.000000
-0.528657 -0.172702 0.319876 0.958627 0.220372 0.180193 0.000000
-0.420338 -0.321932 0.401541 0.775873 0.622798 -0.100712 0.000000
-0.434559 -0.193459 0.341990 -0.065831 -0.123395 -0.990172 0.000000
-0.529876 -0.149823 0.321261 0.840240 -0.339458 0.422806 0.000000
-0.430791 -0.160640 0.331532 0.916927 0.221545 0.331909 0.000000
-0.523471 -0.266442 0.417003 0.868447 0.029556 0.494900 0.000000
-0.422053 -0.248423 0.350459 0.846217 -0.235568 0.477938 0.000000
-0.508854 -0.271367 0.308714 0.921962 0.214382 0.322532 0.000000
-0.529803 -0.196600 0.426466 0.091577 0.215263 -0.972253 0.000000
-0.513112 -0.129683 0.428043 0.175747 0.357170 -0.917357 0.000000
-0.448234 -0.173376 0.440680 0.357184 0.035044 0.933376 0.000000
-0.537923 -0.144774 0.335468 0.958701 -0.253536 0.128888 0.000000
-0.422767 -0.278371 0.351721 0.474597 0.451742 0.755438 0.000000
-0.453757 -0.290040 0.444762 0.018139 0.141119 -0.989826 0.000000
-0.514406 -0.186047 0.428493 0.177962 0.770036 0.612678 0.000000
-0.431784 -0.265365 0.347403 0.997979 -0.035144 -0.052942 0.000000
-0.525140 -0.144883 0.292972 0.898838 0.245513 0.363061 0.000000
-0.441895 -0.185373 0.411677 0.606177 -0.499131 0.619207 0.000000
-0.528037 -0.268935 0.427116 0.904147 0.189235 0.383024 0.000000
-0.421172 -0.224915 0.335864 0.932359 0.230105 0.278850 0.000000
-0.524661 -0.152911 0.296396 0.880055 0.400816 0.254658 0.000000
-0.422391 -0.311788 0.434332 0.975085 0.145353 0.167574 0.000000
-0.526866 -0.137212 0.292237 0.868987 0.237101 0.434333 0.000000
-0.420274 -0.288934 0.361548 -0.403995 -0.690124 -0.600431 0.000000
-0.423932 -0.179502 0.322477 0.935160 0.170867 0.310291 0.000000
-0.440072 -0.286715 0.445020 -0.048529 -0.032832 0.998282 0.000000
-0.452450 -0.228199 0.441677 0.211198 -0.069459 -0.974972 0.000000
-0.448166 -0.131749 0.418059 0.932911 0.272951 0.234892 0.000000
-0.453011 -0.177516 0.338380 -0.034715 0.004525 0.999387 0.000000
-0.538571 -0.149182 0.336620 0.940659 -0.313022 0.131066 0.000000
-0.427719 -0.329223 0.449840 -0.613507 -0.343340 -0.711144 0.000000
-0.415917 -0.302274 0.350439 0.989147 -0.024210 0.144918 0.000000
-0.428009 -0.170434 0.326256 0.938779 0.168143 0.300703 0.000000
-0.519174 -0.327491 0.378419 0.666332 0.203943 0.717223 0.000000
-0.463265 -0.114964 0.435617 -0.036420 0.069912 -0.996888 0.000000
-0.423559 -0.337214 0.450291 0.821086 0.192956 0.537202 0.000000
-0.437494 -0.174261 0.412242 0.965197 0.015456 0.261068 0.000000
-0.438032 -0.127139 0.339243 0.981702 0.042371 0.185651 0.000000
-0.431564 -0.300315 0.374791 -0.119336 -0.687510 -0.716302 0.000000
-0.423328 -0.201895 0.327610 0.960210 0.116905 0.253634 0.000000
-0.410354 -0.337604 0.346503 -0.660294 0.012061 -0.750911 0.000000
-0.528135 -0.290349 0.434693 0.855462 0.197751 0.478622 0.000000
-0.429130 -0.265358 0.345790 -0.414799 -0.033199 -0.909307 0.000000
-0.563038 -0.142091 0.425406 -0.052738 0.039846 0.997813 0.000000
-0.429082 -0.257715 0.351175 -0.277778 0.442297 -0.852768 0.000000
-0.431759 -0.335269 0.343611 0.408670 0.046535 -0.911495 0.000000
-0.519214 -0.249849 0.322299 -0.085632 -0.989437 -0.116964 0.000000
-0.440430 -0.116205 0.340912 0.951816 0.277790 0.129921 0.000000
-0.437500 -0.209526 0.386148 -0.356286 0.596148 -0.719492 0.000000
-0.418888 -0.266569 0.342904 0.811201 0.081027 0.579126 0.000000
-0.472166 -0.207758 0.337578 -0.539127 0.389379 -0.746811 0.000000
-0.414855 -0.324014 0.391705 0.931471 0.321320 0.170634 0.000000
-0.491407 -0.128360 0.432380 0.062281 0.149989 -0.986724 0.000000
-0.430157 -0.165263 0.331406 0.903039 0.251090 0.348533 0.000000
-0.422414 -0.306882 0.431444 0.976870 0.123308 0.174698 0.000000
-0.416723 -0.258519 0.335840 0.953872 0.090591 0.286218 0.000000
-0.522629 -0.201894 0.321488 0.939174 0.315055 0.136720 0.000000
-0.436604 -0.233342 0.444458 0.466803 0.068661 0.881692 0.000000
-0.464208 -0.313470 0.441566 -0.220789 0.248006 -0.943263 0.000000
-0.450087 -0.133035 0.433225 0.855360 0.172240 0.488561 0.000000
-0.454127 -0.305516 0.443302 -0.097525 -0.105503 0.989625 0.000000
-0.445211 -0.278563 0.446245 -0.087230 0.064743 -0.994082 0.000000
-0.429408 -0.218009 0.378569 0.550623 -0.396551 0.734548 0.000000
-0.452652 -0.176329 0.441394 -0.087473 -0.021737 -0.995930 0.000000
-0.426701 -0.207733 0.371313 0.988110 -0.002297 0.153729 0.000000
-0.416209 -0.249876 0.326513 0.951208 0.211595 0.224570 0.000000
-0.415615 -0.260259 0.329386 0.966669 0.064766 0.247704 0.000000
-0.447136 -0.141847 0.427650 0.922790 0.233914 0.306175 0.000000
-0.419599 -0.230093 0.332032 0.973980 0.112213 0.196905 0.000000
-0.420364 -0.209496 0.325233 0.896713 0.255743 0.361249 0.000000
-0.421035 -0.251736 0.345290 0.873592 -0.090166 0.478234 0.000000
-0.513478 -0.293576 0.334188 0.021049 0.062967 0.997794 0.000000
-0.429310 -0.250997 0.430380 0.984356 0.073534 0.160110 0.000000
-0.436675 -0.284980 0.445717 -0.025326 -0.014175 0.999579 0.000000
-0.419628 -0.337715 0.443139 0.960103 -0.022645 0.278730 0.000000
-0.447503 -0.162917 0.438981 0.722809 0.215586 0.656560 0.000000
-0.417155 -0.307672 0.349198 0.925734 -0.260380 0.274259 0.000000
-0.524985 -0.197139 0.327109 0.944930 0.305816 0.116548 0.000000
-0.429065 -0.272343 0.443644 0.597602 0.166878 0.784235 0.000000
-0.507382 -0.317842 0.335091 0.197724 -0.474708 0.857647 0.000000
-0.407790 -0.320645 0.334513 0.795928 0.287028 0.533024 0.000000
-0.413968 -0.312762 0.344459 0.824155 -0.102744 0.556966 0.000000
-0.514497 -0.336555 0.372035 0.995938 -0.049025 0.075526 0.000000
-0.517784 -0.279095 0.333299 0.318977 0.102781 0.942173 0.000000
-0.442086 -0.338221 0.338254 0.482621 0.797370 0.362322 0.000000
-0.442391 -0.122836 0.372476 0.991884 0.093362 0.086317 0.000000
-0.435841 -0.179587 0.404742 0.961034 0.028627 0.274945 0.000000
-0.486049 -0.306895 0.329232 -0.638314 -0.605138 -0.475776 0.000000
-0.437961 -0.184074 0.408516 0.721363 -0.350439 0.597351 0.000000
-0.423800 -0.287918 0.360314 -0.318421 -0.761905 -0.564012 0.000000
-0.529363 -0.205570 0.365057 0.957747 0.242494 0.154652 0.000000
-0.418030 -0.245118 0.329157 0.979002 0.137998 0.150035 0.000000
-0.421884 -0.204616 0.325248 0.931074 0.235041 0.279029 0.000000
-0.523771 -0.292858 0.419874 0.953871 0.139247 0.265971 0.000000
-0.546918 -0.186090 0.427650 0.034318 0.036869 0.998731 0.000000
-0.498140 -0.197645 0.432835 -0.459923 -0.648866 -0.606171 0.000000
-0.425224 -0.220178 0.366709 0.986431 0.074679 0.146206 0.000000
-0.427843 -0.324005 0.448134 -0.573135 -0.218243 -0.789865 0.000000
-0.422171 -0.267849 0.345998 -0.599508 -0.182013 -0.779398 0.000000
-0.425993 -0.179580 0.326016 0.946367 0.192070 0.259807 0.000000
-0.422321 -0.252373 0.349701 0.689129 -0.363061 0.627126 0.000000
-0.414393 -0.322279 0.411303 0.877391 -0.245217 -0.412375 0.000000
-0.439476 -0.220992 0.380320 -0.366742 0.438101 -0.820712 0.000000
-0.518149 -0.168804 0.303556 0.745362 0.405345 0.529274 0.000000
-0.440618 -0.182045 0.440338 0.701371 0.125012 0.701749 0.000000
-0.478230 -0.189802 0.335535 0.067180 -0.184243 -0.980582 0.000000
-0.519678 -0.321572 0.336212 0.206029 0.012889 0.978461 0.000000
-0.424479 -0.323354 0.446945 0.707585 0.325076 0.627415 0.000000
-0.424944 -0.222468 0.363973 0.988223 0.076381 0.132592 0.000000
-0.529826 -0.300336 0.435558 0.835992 -0.019631 0.548390 0.000000
-0.508410 -0.265769 0.321173 0.935704 -0.274007 -0.222212 0.000000
-0.534456 -0.234464 0.429008 0.719703 0.098520 0.687257 0.000000
-0.434263 -0.134999 0.323715 0.984714 0.157618 0.074125 0.000000
-0.418054 -0.229510 0.326363 0.943135 0.091126 0.319675 0.000000
-0.421995 -0.316737 0.433469 0.975843 0.169361 0.138011 0.000000
-0.476180 -0.324677 0.442821 -0.384288 0.412766 -0.825801 0.000000
-0.412557 -0.306397 0.339668 0.965517 0.061002 0.253094 0.000000
-0.466742 -0.196896 0.336520 -0.369617 0.298581 -0.879905 0.000000
-0.437998 -0.203267 0.393204 0.418081 -0.630640 0.653836 0.000000
-0.439888 -0.190413 0.405010 0.527290 -0.608119 0.593428 0.000000
-0.429002 -0.271366 0.353402 0.619921 -0.186410 -0.762201 0.000000
-0.432841 -0.146209 0.326950 0.977556 0.127465 0.167738 0.000000
-0.412887 -0.295737 0.330191 0.940278 0.311456 0.137374 0.000000
-0.439069 -0.164757 0.405281 0.990136 0.115048 0.079966 0.000000
-0.539072 -0.136338 0.408277 0.828928 0.044552 -0.557578 0.000000
-0.410096 -0.315714 0.334874 0.883539 0.156414 0.441467 0.000000
-0.430939 -0.193509 0.388528 0.960878 0.135881 0.241351 0.000000
-0.426197 -0.221941 0.343781 0.823275 0.483472 0.297446 0.000000
-0.429843 -0.325263 0.449434 -0.423834 -0.260214 -0.867556 0.000000
-0.534829 -0.175549 0.342911 0.746503 0.571095 0.341442 0.000000
-0.412210 -0.310142 0.343736 0.896701 -0.083182 0.434750 0.000000
-0.433554 -0.140160 0.317907 0.979049 0.203122 0.014296 0.000000
-0.523863 -0.221689 0.369183 0.782414 0.477884 0.399318 0.000000
-0.527337 -0.177379 0.313657 0.714316 0.215804 0.665719 0.000000
-0.415309 -0.308467 0.369743 0.987874 0.126230 0.090390 0.000000
-0.421095 -0.316447 0.430182 0.985289 0.123768 0.117846 0.000000
-0.447631 -0.153041 0.437489 -0.581674 -0.214514 -0.784627 0.000000
-0.436747 -0.269634 0.445482 -0.168318 0.021073 -0.985507 0.000000
-0.549732 -0.135167 0.425622 0.019692 0.169596 0.985317 0.000000
-0.526309 -0.219058 0.368694 0.821208 0.426030 0.379625 0.000000
-0.525451 -0.331065 0.434568 0.575737 0.150012 0.803756 0.000000
-0.423568 -0.189839 0.325755 0.975779 0.145067 0.163741 0.000000
-0.519165 -0.274673 0.333450 0.338034 0.067013 0.938745 0.000000
-0.402908 -0.339759 0.333496 0.623519 0.258203 0.737940 0.000000
-0.452419 -0.122816 0.433932 0.603870 0.094060 0.791513 0.000000
-0.437935 -0.201833 0.439346 0.778015 0.189065 0.599122 0.000000
-0.422468 -0.204473 0.329598 0.945307 0.205090 0.253639 0.000000
-0.525573 -0.278291 0.412714 0.998306 0.050197 0.029401 0.000000
-0.473321 -0.188442 0.335964 -0.106775 0.087768 0.990402 0.000000
-0.510951 -0.276654 0.316307 0.873065 0.358670 0.330324 0.000000
-0.439440 -0.127304 0.350305 0.991731 -0.019949 0.126776 0.000000
-0.528223 -0.145947 0.299722 0.959063 0.283138 0.005588 0.000000
-0.474873 -0.221082 0.324251 0.797281 -0.521901 0.303252 0.000000
-0.413491 -0.332863 0.385391 0.983700 0.174224 0.044498 0.000000
-0.436924 -0.193191 0.400329 0.582053 -0.427477 0.691720 0.000000
-0.533782 -0.173753 0.338685 0.800036 0.514331 0.308879 0.000000
-0.514146 -0.331118 0.378605 0.894922 -0.029173 0.445268 0.000000
-0.414206 -0.336632 0.405936 0.920673 0.181428 0.345607 0.000000
-0.451955 -0.237116 0.442676 0.123787 -0.074085 -0.989539 0.000000
-0.429313 -0.165229 0.326731 0.927400 0.225455 0.298495 0.000000
-0.432523 -0.236924 0.441875 0.765235 0.030391 0.643034 0.000000
-0.555679 -0.136237 0.425428 0.019729 -0.095285 -0.995255 0.000000
-0.419525 -0.326905 0.429248 0.978702 0.146596 0.143708 0.000000
-0.512082 -0.267205 0.328533 0.730631 -0.382743 0.565408 0.000000
-0.432649 -0.226552 0.438405 0.864830 0.129773 0.485003 0.000000
-0.440325 -0.187117 0.439806 0.727026 0.143679 0.671408 0.000000
-0.495032 -0.286696 0.312451 -0.495273 -0.803788 -0.329589 0.000000
-0.431787 -0.188180 0.382950 0.965898 0.193509 0.172031 0.000000
-0.441626 -0.166813 0.425075 0.975763 0.167324 0.141030 0.000000
-0.524277 -0.286921 0.414831 0.970644 0.163655 0.176260 0.000000
-0.449136 -0.131893 0.428508 0.974861 0.175041 0.137867 0.000000
-0.450937 -0.122191 0.428492 0.956240 0.098718 0.275427 0.000000
-0.448546 -0.155187 0.337505 -0.023294 -0.048964 -0.998529 0.000000
-0.444469 -0.140614 0.405525 0.962507 0.246369 0.113500 0.000000
-0.446450 -0.187891 0.441865 -0.312096 -0.187476 -0.931369 0.000000
-0.422718 -0.305998 0.379905 -0.089828 -0.718812 -0.689377 0.000000
-0.526160 -0.336332 0.436911 -0.581385 -0.171826 -0.795278 0.000000
-0.433821 -0.210308 0.435571 0.930713 0.168457 0.324645 0.000000
-0.418794 -0.331666 0.432805 0.985557 0.065608 0.156120 0.000000
-0.523140 -0.335452 0.434374 -0.561625 -0.251212 -0.788334 0.000000
-0.532974 -0.147202 0.326000 -0.678222 0.197310 -0.707873 0.000000
-0.420765 -0.325762 0.439136 0.958545 0.157376 0.237539 0.000000
-0.442851 -0.118445 0.372598 0.976350 0.169071 0.134744 0.000000
-0.527854 -0.145161 0.324369 0.688468 -0.086258 0.720119 0.000000
-0.527256 -0.272617 0.427436 0.923136 0.144831 0.356150 0.000000
-0.420606 -0.225723 0.332226 0.961987 0.162164 0.219734 0.000000
-0.416495 -0.292280 0.357135 0.899889 0.411145 0.145460 0.000000
-0.440754 -0.128731 0.358222 0.987744 0.044563 0.149585 0.000000
-0.527107 -0.294479 0.434527 0.850702 0.036256 0.524397 0.000000
-0.410685 -0.310948 0.334674 0.907121 0.078952 0.413399 0.000000
-0.425288 -0.173923 0.322248 0.936718 0.218015 0.273912 0.000000
-0.420218 -0.331422 0.409968 0.444377 0.305449 0.842158 0.000000
-0.537941 -0.153638 0.327928 0.801099 -0.268322 0.535017 0.000000
-0.418449 -0.287684 0.357779 0.750782 0.597276 0.282113 0.000000
-0.545049 -0.159385 0.423606 0.735278 0.235705 0.635459 0.000000
-0.433682 -0.242818 0.443420 0.522907 0.061114 0.850196 0.000000
-0.536402 -0.144535 0.420265 0.497133 -0.824318 0.270848 0.000000
-0.409943 -0.326514 0.343448 0.756768 0.183625 0.627363 0.000000
-0.415151 -0.324056 0.373766 0.980248 0.063135 -0.187423 0.000000
-0.521970 -0.309273 0.422162 0.921998 0.161906 0.351718 0.000000
-0.534673 -0.245106 0.432545 0.831520 0.273128 0.483711 0.000000
-0.423112 -0.232422 0.363334 0.880133 -0.257220 0.399004 0.000000
-0.521606 -0.329658 0.431483 0.644343 0.202697 0.737385 0.000000
-0.521812 -0.280489 0.334122 0.174863 0.048233 0.983411 0.000000
-0.443423 -0.128669 0.387977 0.982852 0.018080 0.183507 0.000000
-0.429023 -0.180321 0.340259 0.520186 0.135284 0.843270 0.000000
-0.414251 -0.296864 0.346328 0.952477 0.103126 0.286623 0.000000
-0.437411 -0.121425 0.334881 0.971148 0.196074 0.135747 0.000000
-0.442494 -0.124708 0.369868 0.994249 0.069824 0.081205 0.000000
-0.528059 -0.181580 0.428495 0.042780 0.195220 0.979826 0.000000
-0.524989 -0.187438 0.313325 0.853709 0.054589 0.517882 0.000000
-0.545684 -0.169469 0.425010 0.176467 0.289697 0.940710 0.000000
-0.414767 -0.314346 0.370761 0.995995 -0.089147 0.006812 0.000000
-0.449506 -0.304059 0.443943 -0.161173 -0.059642 0.985122 0.000000
-0.443267 -0.193338 0.442263 -0.665121 -0.141384 -0.733229 0.000000
-0.525158 -0.218496 0.365283 0.811608 0.448002 0.374948 0.000000
-0.511605 -0.185696 0.424365 0.375811 0.851735 0.365120 0.000000
-0.533466 -0.135451 0.426910 0.183980 -0.302079 0.935361 0.000000
-0.526488 -0.187800 0.318055 0.938733 0.132017 0.318359 0.000000
-0.414712 -0.307787 0.361142 0.999647 0.025462 -0.007629 0.000000
-0.529304 -0.220229 0.376971 0.887341 0.330256 0.321802 0.000000
-0.442993 -0.161907 0.426041 0.959171 0.166427 0.228676 0.000000
-0.525653 -0.299768 0.428531 0.917153 -0.003421 0.398520 0.000000
-0.437350 -0.131660 0.339409 0.945252 -0.154034 0.287701 0.000000
-0.447360 -0.136362 0.423404 0.915767 0.307117 0.258940 0.000000
-0.455817 -0.144699 0.438646 -0.516066 -0.097707 -0.850958 0.000000
-0.432176 -0.160956 0.336377 0.703973 0.278476 0.653356 0.000000
-0.443883 -0.307348 0.444721 -0.194206 -0.039054 0.980183 0.000000
-0.511282 -0.251601 0.331273 0.692376 0.450370 0.563721 0.000000
-0.443759 -0.124566 0.387573 0.977989 0.094514 0.186025 0.000000
-0.544068 -0.157165 0.406618 0.980305 0.188541 0.058772 0.000000
-0.433398 -0.198218 0.342077 -0.344090 -0.102183 -0.933360 0.000000
-0.527659 -0.178013 0.324260 0.968992 0.191330 0.156355 0.000000
-0.496622 -0.310026 0.336171 0.135036 0.085405 0.987153 0.000000
-0.438159 -0.191543 0.435505 0.888743 0.128677 0.439974 0.000000
-0.472708 -0.322913 0.442402 -0.499626 0.412894 -0.761507 0.000000
-0.545910 -0.211102 0.430538 -0.273542 -0.049179 -0.960602 0.000000
-0.416915 -0.330134 0.407220 0.731737 0.000376 0.681587 0.000000
-0.419553 -0.246124 0.341139 0.969885 0.011996 0.243268 0.000000
-0.427638 -0.277160 0.443359 0.852372 0.131814 0.506050 0.000000
-0.415295 -0.312344 0.355735 0.961620 -0.163637 -0.220251 0.000000
-0.434780 -0.189165 0.423005 0.943051 0.255121 0.213467 0.000000
-0.458281 -0.198084 0.331124 -0.464311 0.558177 -0.687644 0.000000
-0.435389 -0.179499 0.399718 0.960691 0.122428 0.249166 0.000000
-0.423849 -0.292873 0.366000 -0.244707 -0.737787 -0.629117 0.000000
-0.446414 -0.170471 0.338609 -0.033942 -0.004796 0.999412 0.000000
-0.494603 -0.299414 0.331220 -0.576319 -0.683128 -0.448545 0.000000
-0.525662 -0.232997 0.375503 0.981183 -0.015979 -0.192416 0.000000
-0.444218 -0.145652 0.422150 0.955414 0.146632 0.256289 0.000000
-0.524226 -0.288797 0.419547 0.970000 0.144412 0.195566 0.000000
-0.519768 -0.290243 0.333948 -0.000598 0.017746 0.999842 0.000000
-0.436490 -0.185447 0.422734 0.938785 0.276293 0.205778 0.000000
-0.525351 -0.291913 0.334645 -0.132778 -0.002885 -0.991142 0.000000
-0.451856 -0.117615 0.428941 0.917886 0.073041 0.390064 0.000000
-0.440597 -0.171051 0.420708 0.987077 0.038679 0.155510 0.000000
-0.414213 -0.280669 0.332413 0.991837 0.035841 0.122372 0.000000
-0.528363 -0.156385 0.310057 0.867847 -0.067044 0.492286 0.000000
-0.443651 -0.145537 0.412452 0.969538 0.242747 0.032698 0.000000
-0.417131 -0.292655 0.351272 0.968062 0.216470 0.126475 0.000000
-0.417350 -0.323584 0.365366 0.966192 -0.206983 -0.153726 0.000000
-0.431091 -0.282097 0.355457 0.140573 0.596575 0.790150 0.000000
-0.442610 -0.183070 0.413855 -0.640780 0.442178 -0.627598 0.000000
-0.521124 -0.323610 0.431237 0.797013 0.207701 0.567125 0.000000
-0.530741 -0.265312 0.430415 0.866489 0.239305 0.438097 0.000000
-0.440814 -0.196568 0.399513 -0.313747 0.585322 -0.747637 0.000000
-0.441756 -0.167035 0.427715 0.976038 0.194195 0.098175 0.000000
-0.526561 -0.305118 0.431893 0.880417 0.213132 0.423604 0.000000
-0.439981 -0.136970 0.343245 0.687909 -0.610511 0.392502 0.000000
-0.529033 -0.175759 0.427874 0.259203 0.535158 0.804002 0.000000
-0.412945 -0.319288 0.410391 0.825062 -0.367738 -0.429000 0.000000
-0.413408 -0.333983 0.390443 0.978920 0.203932 0.011299 0.000000
-0.536198 -0.240540 0.432309 0.766629 0.214309 0.605270 0.000000
-0.473858 -0.212891 0.332253 0.821600 -0.439579 0.362965 0.000000
-0.423070 -0.232938 0.356064 0.990400 -0.020095 0.136763 0.000000
-0.427551 -0.300566 0.373614 0.029423 0.701382 0.712178 0.000000
-0.471922 -0.209274 0.333865 0.702368 -0.482804 0.523048 0.000000
-0.543248 -0.158841 0.408969 0.843161 0.506625 0.180030 0.000000
-0.497902 -0.194138 0.429179 0.592445 0.757204 0.275047 0.000000
-0.436570 -0.141668 0.338015 0.731872 -0.040855 0.680217 0.000000
-0.445973 -0.185901 0.338859 0.178541 0.063917 -0.981854 0.000000
-0.519457 -0.328742 0.430321 -0.661343 -0.210541 -0.719929 0.000000
-0.423596 -0.275129 0.349922 0.533024 0.349930 0.770347 0.000000
-0.510259 -0.288908 0.334685 0.357993 0.324453 0.875541 0.000000
-0.427441 -0.181210 0.335339 0.868230 0.141901 0.475437 0.000000
-0.441452 -0.131156 0.361806 0.986297 0.065245 0.151529 0.000000
-0.450731 -0.117076 0.424339 0.972529 -0.020339 0.231892 0.000000
-0.439157 -0.205035 0.392076 -0.414691 0.648252 -0.638593 0.000000
-0.523995 -0.233450 0.378170 0.981183 -0.015979 -0.192416 0.000000
-0.433394 -0.189878 0.398697 0.876671 -0.201848 0.436699 0.000000
-0.534172 -0.229383 0.428544 0.730092 0.136605 0.669555 0.000000
-0.452435 -0.112235 0.431298 0.839751 -0.120742 0.529376 0.000000
-0.450615 -0.141746 0.339007 0.041824 0.187350 -0.981402 0.000000
-0.523743 -0.294481 0.417889 0.943049 0.158477 0.292477 0.000000
-0.486662 -0.209453 0.434179 0.329980 0.656647 0.678179 0.000000
-0.512422 -0.276896 0.321228 0.922960 0.283170 0.260691 0.000000
-0.415299 -0.319282 0.374153 0.992611 -0.050815 -0.110184 0.000000
-0.427084 -0.266417 0.433905 0.988105 0.119277 0.097069 0.000000
