# 3D point list with one line of data per point:
#   POINT3D_ID, X, Y, Z, R, G, B, ERROR, TRACK[] as (IMAGE_ID, POINT2D_IDX)
# Number of points: 359, mean track length: 4.2912258867454884
6 -0.13369829560955476 1.5794964405436613 8.0577401842448459 149 153 153 1.3655312067121155 7 950 38 799 6 556 27 809 31 1057 1 779 25 1012 8 1178 32 1059
7 0.16338134856678199 2.3691082222209232 5.9023369980611253 18 27 25 0.56251748529738665 7 1000 38 884
8 -7.4821814376095261 -5.489752553216352 22.263509389164629 254 251 252 1.0128432278109931 7 1097 38 1247 29 1061 30 944 31 1287 8 889 32 970
10 -3.0564272421190459 -2.4461212517752466 16.992940790319683 138 136 138 0.92802065967591885 7 1337 38 1294 6 902 29 1120
11 -3.0325911018301159 0.01599920340943109 4.8302455283112984 166 199 211 0.91960602039063477 7 462 38 1304 27 1271 25 964
12 -0.62064364218635026 1.5291661846078515 7.8707206407810473 162 159 151 1.0556313162371593 7 1368 38 1368 6 1260 5 493 27 1328 4 519 26 1407 31 1634 1 1145 25 1638 32 1482
13 -2.2377181419075463 1.7588484020218431 6.0364516586686161 182 196 207 1.7390148956013052 7 961 38 1389 29 1220 31 1061 1 972 25 1249 8 415 9 290 10 311
14 -0.13350342909840557 1.5588340082312295 8.2394705254956122 79 94 94 1.7847309438574044 7 1499 38 1715 8 1394 32 1631 9 1019
15 -0.71154119853627029 1.5686802225618077 7.5713746465726475 157 153 143 1.3844390223510752 7 1500 38 1717 6 1264 29 1762 30 1723 1 1289 25 1640 31 1885
16 -0.71497280454389167 2.1409099751538192 6.1089357743484713 124 129 131 0.6519447268375651 7 1510 38 1732 6 1486 5 998 4 999 30 1740 31 1806 25 1661
17 -0.51175561038366624 2.361966435169585 5.620418613339738 148 148 151 1.4209820212799129 7 1389 38 1746 5 1016 27 1653 4 1251
18 -0.30836245417134361 0.56228885154663499 10.754181899650066 103 105 100 0.98223968392829963 7 1576 38 1910 6 1606 29 1898 30 1829 31 1947 1 1353 25 1815 32 1665 33 1246
19 -0.30817842924386007 0.56510695047499016 10.597942701764067 103 105 100 1.0063228538898865 7 1577 38 1911 6 1607 29 1899 30 1830 1 1354
20 -0.3192611813096628 1.576800452653994 7.9216854200407036 146 149 149 1.5796903174922325 7 1582 38 1927 6 1616 27 1975 4 1415 26 2203 3 1498 2 1866 31 1886 1 1364 25 1745 8 1439 32 1630 33 1165 34 1033
21 -0.60511161957829218 1.7095349556761368 7.3856556725558322 118 123 123 1.1800083837979931 7 1503 38 1931 6 1470 29 1764 5 1285 4 1419 26 2106 30 1606 31 1794 1 1293 25 1751 8 1395 33 1112
22 -2.49348748661905 1.7628558164570518 5.9835407620649557 188 198 206 1.1652039791579918 7 1189 38 1939 6 1473 29 1560 27 1857 26 2112
24 -0.79498906339272268 2.2608543333629445 5.7226092304600957 92 99 100 0.87606052212967522 7 1594 38 1952 6 1711 27 2002 4 1441 1 1379 25 1763
25 -1.7136091121043751 0.11489912895283838 5.7275530960590109 22 34 31 1.6787213747957808 7 1485 38 2047 30 1811 31 1614 8 1372 32 1455
26 -0.68553374148591772 2.0875729280877167 6.2720308758632637 150 154 149 1.0140793750395123 7 1587 38 2089 6 1703 29 1782 5 1548 27 1993 4 1553 26 2320 3 1505 31 1896 30 1903 1 1426 25 1827 8 1446
27 -4.4551473261054237 -5.2284722373073116 23.417871181320287 255 253 253 1.4761797237274257 7 1612 38 2162 6 1672 29 1966 5 1737 30 1795 31 1965 1 1400 25 1843
28 -3.833304457812805 -4.1097701415655781 21.673505820147795 196 189 187 1.204077328883042 7 1615 38 2165 30 1883 1 1403 25 1798
29 -0.10951190775331132 2.1434634549316431 6.5024920204118928 106 112 111 1.3090784733330061 7 1651 38 2198 6 1763 29 1922 27 2101 5 1549 4 1551 26 2318 30 1906 31 1952 1 1470 25 1878 8 1480
30 -1.2708584999058838 2.155766784712327 5.7298124980962273 112 120 117 1.6242958468923447 7 1650 38 2202 6 1764 26 2378 4 1558 3 1596 1 1428 30 1905 25 1880 31 1950 29 1923 8 1445 32 1671
31 -0.96922301259781396 -3.0220891594617441 20.075641189860534 187 184 181 0.71219268817734793 7 1716 38 2257 6 1754 29 2047 30 1932 31 2031 1 1449 25 1908
32 -0.26874230263600885 1.1383498826642942 9.1107914969368959 42 50 50 1.1246329489333553 7 1765 38 2317 6 1828 29 2091 27 2251 4 1777 30 1977 31 2091 1 1522 25 1952
33 -1.6146749850107307 1.0961180165511835 8.191090703202164 51 59 58 1.0473022896329165 7 1761 38 2318 6 1824 29 2087
34 -1.6146749850107307 1.0961180165511835 8.191090703202164 51 59 58 1.0473022896329165 7 1762 38 2319 6 1825 29 2088
35 -0.33404121395502673 1.376647206163967 8.4684964360935577 167 163 150 1.1232020467125809 7 1767 38 2321 6 1831 29 2092 5 1869 27 2252 30 1981 31 2096 1 1524 25 1956
36 -1.5187006657870912 1.5935095826523196 7.0380977610525983 114 119 118 1.3678379175060746 7 1732 38 2324 6 1832 29 2094 5 1827 27 2291 4 1779 26 2428 3 1658 1 1526 25 1957
37 -1.0052979931769757 2.1608367760641487 5.770566658281532 116 122 122 1.2117454861920958 7 1737 38 2327 6 1837 29 2101 5 1836 27 2258 4 1781 26 2430 1 1531
38 -1.2457489892051685 2.2297186816096355 5.4286176654214042 144 146 146 1.520249185805373 7 1738 38 2328 6 1839 5 1837 4 1782 31 2054 1 1532 26 2431
39 -1.0645438189484175 1.178791945148814 8.5081060167917073 107 113 112 1.1082666027831101 7 1763 38 2353 6 1853 29 2129 31 2087 30 1997 1 1540 25 1967 8 1558
40 -1.5858214195643745 1.3535903306043224 7.5250026511157406 158 155 151 1.5197248535654633 7 1787 38 2354 6 1854 29 2130 1 1542
41 -2.3946855171921646 1.7023121768634655 6.1014612193694715 224 243 255 1.3382420116605649 7 1687 38 2358 6 1834 29 2097 1 1501
42 -2.3619634274637278 2.0170102434699704 5.4217051518677009 141 147 147 1.2861992461299212 7 1792 38 2360 29 2144 5 1914
43 -0.83003598700910408 1.7461731546859582 7.0898255456109291 42 58 62 0.96572814816722274 7 1791 38 2380 6 1856 29 2135 5 1912 27 2329 4 1845 26 2451 31 2112 30 2012 1 1555 25 1969 8 1561
44 -1.2342878620127926 1.461741481301017 7.4526416081920468 152 150 144 1.9940433764517385 7 1799 38 2397 6 1873 29 2156 31 2126 1 1563 25 1986
45 -1.3960074122570816 2.3210101800317271 5.0796206054701747 25 33 32 1.461291102559563 7 1803 38 2403 6 1891 29 2172 5 1941 27 2345 4 1862
46 -2.2798905895662851 2.2539471042155972 4.94581002647414 124 132 133 0.84545235526140916 7 1801 38 2405 6 1890
50 -16.849388356270076 -19.697588262762473 38.470923894308363 252 218 204 1.3227106898311565 7 7 6 30 30 69
52 -8.4322015965699464 -19.492259398370244 41.849024295388624 213 168 146 1.3251286848255324 7 57 6 96 29 21 26 372 3 35 30 151 31 92
53 -14.08894524993349 -18.587539544076844 41.99409538270173 249 229 220 0.46912273365858131 7 92 6 119 31 821
56 -9.1062474561865283 -17.494653465978665 43.860365505949446 31 20 12 1.0465688782941382 7 749 6 164 29 966 5 804 27 335 4 173 26 487 3 130 30 233 31 166
57 -10.226527528162274 -15.333099753695931 44.140219325910195 51 53 57 0.80738200249928938 7 761 38 414 6 210
58 -4.5512000499625316 -16.609473258654656 50.032852777879896 73 54 43 0.85896349819918172 7 136 38 422 6 228 29 217 5 146 27 410 26 553 3 795 30 294 2 424 31 858
59 -5.2501903064704747 -16.933850238018945 51.133472785424495 215 204 202 0.9045625986811161 7 135 6 230 38 1196 29 1442 5 148 27 412 4 235 26 1256
60 -4.3996294494476675 -16.585416814491023 50.596229433916967 228 220 224 0.95870776964459103 7 765 38 1199 6 232 5 152 26 559 3 190 30 925 2 431 31 860
63 -5.6370855290817046 -5.4542436723343108 23.147168143344768 250 252 253 0.69504659009603187 38 1263 6 297 29 346 7 809 27 1211 30 957 31 910
66 -1.1599818499423615 -4.193505885423046 23.090150000059246 36 44 39 1.4066819622002942 7 337 6 377 30 984 31 414 25 404
68 -2.0013400489465116 -1.2777822824215199 14.647726546015575 13 28 28 0.43520093115240632 38 673 6 429 29 441 30 1012
70 -1.8167790484230744 0.62478729346456086 6.0279565457336162 19 36 39 1.5626464870274948 38 742 6 470 1 413
71 -0.66065840132047948 1.5549400273134699 7.7327295653961903 88 91 90 1.162421269443902 7 946 6 547 31 1373 1 778 25 1486
72 -0.65557313179550936 1.5652912854891043 7.7240638055455113 88 91 90 0.25878985618421219 7 947 6 548 1 777
73 -2.0142532325580094 1.5909554883237413 6.2898872428793631 217 245 251 0.6951198412706614 38 815 6 553 5 501 4 538 3 488
74 -2.617390510142251 2.2504761700083646 4.4722370728270935 154 161 163 1.3610747572550224 38 916 6 653 27 936
76 -15.896367557841575 -20.382141654705901 39.36791912795514 255 239 221 1.2135045568467655 7 708 6 751 30 66 31 39
78 -16.031693163514895 -16.208676525873003 39.2532182160312 188 161 151 1.6453550050710568 7 745 6 794 5 795 32 899
79 -11.64700325840006 -17.180441863996666 41.609526252068271 219 177 158 1.0757057391887772 7 110 6 797 38 342 29 959
80 -10.305458343300119 -16.094916726351766 44.527611576579503 215 202 202 0.83980618482825298 7 756 38 1182 6 818 29 1427 5 817 27 1520 4 824 30 913 31 847
82 -10.670783600003675 -15.631106505956843 43.815105077646344 214 198 196 0.81833164307384032 7 758 38 1585 6 820 29 1432 5 125 27 1524 4 831
83 -10.324347178605416 -16.162405899343618 45.439832253849239 49 46 48 0.86078417948366048 7 759 6 821 38 397 29 992 5 131 30 915
85 -4.7081834961090179 -5.2303897255739784 23.210388342687271 49 71 69 0.92670781965987603 7 1319 6 872 5 873 27 1218 30 1321
91 -3.0790893693533126 -2.4807407196911901 17.22472047520187 130 138 140 1.0645250880211556 7 1336 38 1293 6 901 29 1119 31 1741
92 -1.9307803549005942 -0.016031363971891865 5.5449906838643779 62 81 96 2.021631203174413 7 901 6 909 5 352
93 -3.2178363069097138 0.24652424711317039 4.9640202661586104 250 255 255 1.341874894969014 7 475 6 912 29 445
99 -1.7737922412441529 0.65770164338710246 5.9565382025657883 227 248 251 1.0075370019450212 7 512 38 746 6 949 29 503 25 998
100 -1.9016051023660405 0.96622169499819188 6.0738833208047476 4 16 14 1.0473279520429501 7 928 6 960 1 443
101 -1.9867375950677553 1.4838102188411537 6.3290542682845219 224 251 254 0.63048563574993499 38 806 6 985 29 585
102 -2.0262732035618525 1.6926209045792988 6.3202778291043051 207 226 242 0.48676291555330164 38 820 6 995 29 606 27 847 30 1078
103 -2.2731189470268256 1.7873711659083755 6.013880336538497 94 108 116 1.4030134696294774 7 592 6 1003 1 798 8 416
104 -2.7313705894428453 1.9370952266677726 5.2997686827096127 129 147 152 1.0519810083953793 38 1415 6 1011 26 1782
105 0.26653623025063244 2.2915751000155793 6.298353534879463 144 150 152 1.218437871061635 7 1219 31 1662 1 990 32 1500
106 -15.490564413825297 -20.452663887714372 39.601335627731814 251 227 211 1.0562563172387334 7 1025 6 1103 30 1216 31 1146
107 -15.636169601945443 -19.1657009588838 40.301110481535979 250 238 233 0.78387643218878034 7 1031 6 1116 30 1239 31 1158 25 1090
108 -13.722769281535367 -19.130913745086428 40.916241175981291 253 231 223 1.0172832745621512 7 1034 6 1119 29 1384 30 1241 31 1165
109 -12.492456448573735 -18.109583043762711 41.480400522059277 219 168 148 0.9383115059970325 7 1037 6 1127 29 940 38 1136
110 -15.679083532302313 -16.04720391065316 39.025566621886142 201 176 163 1.3211670481238726 7 1040 6 1134 29 1402 5 1423 30 1255 31 1180
111 -9.284779204140591 -17.297405444204976 43.346441193415835 218 165 143 1.3655802544022833 7 1257 6 1143 29 967 7 119 5 1166 27 1133 4 174 26 1218 26 1886 3 133 31 1482
113 -4.1637273099316028 -17.531243746549485 48.786081323581321 195 172 167 1.2777991287129058 7 1268 6 1161 5 1183 26 1656 2 1320
115 -2.1516177716852058 -15.00907420871475 53.954976870835232 171 144 131 1.573086206235822 7 1299 6 1186 30 1304 4 1170 31 1565
116 -3.6713822168407004 -1.0101340088875026 7.159271680692723 151 151 155 0.96603372623591965 38 1654 6 1189 29 1499 27 1236
119 -4.2861110138876661 -5.6293297699018252 24.218671550046686 55 82 87 1.0940461926953318 38 1645 6 1202 29 1491 5 870
120 -3.3496850614713267 -0.82106277015027029 6.8473404596350465 170 175 177 1.0034835938934763 38 1657 6 1203 27 1590
122 -0.61837839151044394 1.5302315795456323 7.8604309015187743 149 151 147 0.97668763845071049 7 1369 6 1261 31 1635 1 1146 25 1639 33 1109
123 -3.5266444951308742 1.594719808043187 5.3871232412662327 233 248 255 0.83443615094125023 7 574 6 1262 5 511
124 -2.0219068568810608 1.7458250524548828 6.3884835628213894 2 4 3 1.5223745674654545 38 1384 6 1268 29 1557 6 1468 5 1288 27 1851 4 1229 26 2208 3 1501 25 629 30 1080 8 754
125 -2.7875958253266981 1.7865996884700988 5.947507096284661 186 202 212 1.0407203754446948 38 1725 6 1269
126 0.22371616801257499 1.8674844538944444 7.4279869161988072 134 148 148 1.1516420976489343 7 1378 6 1278 27 1631 5 987 1 1299
127 -0.32986026921509326 2.0825666539860035 6.5832569290170087 157 159 157 0.53251934552171087 7 1202 6 1282 8 1314
128 -3.0555700844740858 2.1602955340990557 4.8829283484356836 75 93 100 1.598868756825264 38 900 6 1285 29 639
130 -11.900426488980395 -18.906555223823506 40.680213175283988 221 175 165 0.16576468130508162 7 1243 6 1337 31 1454
131 -15.630203402639259 -17.518397635495081 39.801365364644049 204 172 161 0.83643519161703139 7 1247 6 1348 29 1647 31 1462 8 1202
132 -15.213806533510942 -15.808737246744224 40.986457055169261 202 173 161 1.1266569831561066 7 1259 6 1371 5 1435 30 1494 31 1486 8 1216
133 -16.571758467036847 -14.863502188501807 39.322719809589209 201 177 166 0.97575294103560783 7 1261 6 1374 29 1851 5 1437 30 1497 31 1491 8 1217 32 1388
134 -16.066890636637776 -15.053321152878327 40.258778917015135 197 170 158 1.0108571056720994 7 1262 6 1376 29 1852 5 1441 30 1675 8 1219 32 1390 31 1495
135 -15.327752478116004 -15.210873142963305 41.12786887490325 188 156 140 1.2144991497788924 7 1045 6 1383 5 1444 31 1505 8 1027
136 -16.908502335043742 -14.404945497741297 39.899653639309371 191 165 153 1.1110028244850203 7 1267 6 1385 5 1445 31 1512 8 1033 30 1503 32 1392
137 -4.9440519843147417 -17.551828080575735 49.291325238470016 177 155 145 1.0271629441086181 7 1269 6 1394 3 1092 30 1514 31 1518
138 -17.015496068371796 -13.780367669977334 40.10255769035021 204 180 172 0.96952528257865267 7 1277 6 1395 5 1460 29 1675 30 1510 31 1524 25 1574 8 1227
139 -15.551749576168383 -13.071132761561458 38.314948150406209 201 174 162 1.1703922437789291 7 1059 6 1399 5 1191
140 -1.5447630321976829 -16.792017792995736 52.508582212067253 188 161 150 1.5681742666696947 7 1285 6 1408 5 1466 3 1310 31 1552
143 -2.385763804668247 1.5753495425626201 6.2953757279515026 134 146 151 0.81655109797524694 38 1720 6 1464 27 1847 1 1291
145 -2.7070617094025811 1.7677503709879199 5.8922894898747735 176 196 208 1.0648151751761559 38 1942 6 1471 5 1294
146 -0.018567436294146367 1.7114994288512109 7.7270817448731455 129 137 139 1.1369629381773307 7 1505 6 1474 5 976 27 1627 30 1608 1 1292 8 1310 25 1645
147 -2.3823708997281394 1.7654973486851968 5.9534282716781632 184 202 216 0.69649350591666115 38 1940 6 1477 27 1856
148 -1.4015412832275884 2.131280032104403 5.6784335144737499 104 116 119 1.0126323182880348 7 1205 6 1485 29 1582 27 1650 26 1968 1 1160 25 1662
149 -2.459096687013647 2.2395116539340969 4.669139182807303 138 150 153 0.97708460111936812 38 1755 6 1498 29 1251 27 1874
150 -2.5394879203148251 2.2338702347745123 4.5531201517283879 135 147 147 1.3558488813589249 38 1958 6 1499 29 1590 5 1315 27 2011
151 -1.5357037025769102 2.6543631311036884 4.1493194310094275 122 137 143 0.2411034395327126 38 1763 6 1520 29 1599
152 -1.1155655436443623 2.8373241688841917 3.8885985209109442 151 161 161 0.77493002440505687 38 1766 6 1525 4 1057
153 -12.521414163449162 -18.854496325791718 41.285092598676087 219 152 122 0.67683693460080996 7 1413 6 1542 31 1686
154 -15.69914708256502 -17.0833050230775 38.409342647339173 226 193 183 1.2262915235803142 7 1419 6 1547 5 1615 30 1659 29 1839 31 1689 8 1326 32 1507
156 -14.751935991784991 -17.742952959336058 40.888172089918314 238 217 211 1.1416076885803099 7 1248 6 1551 29 1840 30 1661 31 1693 25 1697 8 1206
158 -14.91400072236854 -16.275185445227059 40.381756527083319 197 166 154 1.0258910359593514 7 1428 6 1562 29 1844 5 1622 30 1669 31 1696 8 1330
160 -15.934783820885544 -15.702483485334547 39.851112313914058 213 200 197 1.1351210028177228 7 1430 6 1565 5 1724 30 1781 31 1698 8 1214 32 1381
161 -10.574712909088746 -17.096072251519939 45.64857893045663 170 146 133 0.75786151136702795 7 1431 6 1571 31 1704
162 -10.418592609548469 -15.688101704053807 45.721286018468383 70 68 70 0.84734539395988184 7 1432 38 2020 6 1577 29 1855 5 1632 4 1346 27 1769 30 1684 31 1839 1 1237 25 1577
163 -9.6118255798503522 -14.746340411032401 45.317904989889954 143 122 112 2.2055850500234544 7 1435 6 1579 5 1635 27 2173 38 2247 29 2030 30 1786 31 1706
171 -1.8032645251864201 0.73856628573998651 6.1818257596498309 203 232 253 0.84039798765319185 38 1912 6 1605 29 1750
172 -1.9719052249322662 1.5115945699573521 6.3136500470596078 185 218 230 0.45950434645918758 38 2069 6 1613 29 1760 5 1528
173 -2.5316915335743739 1.4824494770700583 3.8477043823835264 227 255 255 2.4267942311721518 38 1937 6 1615
174 -2.3781581548950923 1.6729823150547247 6.1021277108855987 212 247 255 0.93015601987082897 38 2078 6 1618 29 1772 5 1537 27 1985 4 1546 26 2210 1 1294 8 1163
175 -3.0922539417351698 1.7468328551468695 5.6028401696940406 191 208 219 1.5770182026548056 7 1186 6 1620 29 1775 27 1998 4 1429 26 2218
177 -2.4323665196152136 2.2825037546479607 4.5313185833301031 96 108 111 1.1308563024556881 38 2105 6 1635 29 1798 31 1810
178 -3.8276452683467466 -21.855526730608389 48.046675128786632 64 62 54 1.0310479321947417 7 1602 38 2142 6 1650 29 1945 27 2043 26 2160 30 1778 31 1913 1 1317 25 1692 25 1784
185 -2.4435164987659146 1.5323984473395178 6.3881355111622913 125 140 144 0.68839299104042495 38 2194 6 1687 29 1906 29 1991 5 1676 27 2202 26 2410
186 -1.9990004189265189 1.6292026070021615 6.2937671820597574 187 219 242 0.96456727019649702 38 2076 6 1688 29 1908 30 1836 31 1790 8 1302
187 -2.1298705522544781 1.6748150329634703 6.2260795609474728 185 218 243 1.6927376611715392 38 2077 6 1690 29 1910 5 1679 27 2100 4 1647 26 2315 3 1664 2 1998 31 1792 25 1754 8 1303 32 1478
189 -2.1577166530147269 1.9053877654432945 6.3668529552415416 103 119 125 0.48337366468554599 38 2086 6 1697 29 1916 30 1734
190 -3.0290635176209575 2.0094457360029732 4.9254536474645745 121 139 146 2.0656199103976629 7 1506 6 1701 29 1786 27 2111
192 -2.8763721575219567 2.098977630385813 4.6021435907671595 113 128 130 1.0788374309510158 6 1706 5 1696 27 2216 4 1655
193 -2.2277493283848377 2.6774511394580389 3.6365871928517568 159 170 168 1.9336945368883924 38 2207 6 1715 29 1932 5 1572 4 1573
196 -2.9467178195433577 -20.865221833168015 48.477106427266939 212 181 175 1.4422953415000632 7 1659 38 2229 6 1723 3 1688 2 1979 31 1916
197 -1.6359080348768957 -21.098979769480913 49.426892449891099 221 190 174 1.2203725272655555 7 1603 38 2231 6 1724 29 2016 5 1787 27 2151 26 2265 3 1624 30 1868 2 1914 1 1438 25 1787
199 -3.0231560179925006 0.08466909427618842 4.8905582152258713 45 53 53 1.5606423787022228 7 1639 6 1752 29 2050 5 1744 27 2246 4 1626 4 1718 26 2364 7 1571 1 1420 8 1369 31 1876
200 -3.9123656715708446 0.98778732911408362 6.7141634465804438 23 34 28 2.0019290126417508 7 1579 6 1759 29 1986
202 -1.774269838170444 2.2585445130803197 5.0760355928139012 131 143 146 0.87988918466600996 38 2205 6 1765 29 1927
203 -2.5161689513179986 2.706926006898736 3.7673969511260936 113 133 141 1.423203696409302 38 2206 6 1768 29 1930
205 -4.3370022404296567 -21.070041033297919 50.646295363114376 41 45 45 1.671332238924311 7 1660 38 2296 6 1775 29 2071 27 2232 26 2340 3 1692 30 1920 31 2015 1 1439 25 1788
206 -4.6703851155507801 -19.123519581176868 50.02524845403633 52 63 60 0.65234776312973164 7 1703 38 2298 6 1778 29 2075 27 2234 26 2271 3 1701 31 2017 1 1441 25 1897
207 -4.7129281619368681 -19.295624055331398 50.488423086332425 52 63 60 0.75785974461594952 7 1704 38 2299 6 1779 29 2076 26 2272 31 2018 1 1442
211 -0.23931474637864694 -2.5265102450158312 19.23497548563406 175 182 184 0.80470379798841252 7 1717 38 2258 6 1790 29 2048 27 2186 30 1933 1 1488 25 1909
214 -3.6239573192823644 1.689638361302112 5.488342913102775 26 39 36 2.5904038771099134 7 1583 6 1799 1 1499
215 -1.2655086393697337 1.8338646635817839 6.6057534270193674 100 111 114 0.52068800189618492 7 1688 6 1800 29 2058 30 1954 31 2051 1 1502 25 1926 8 1511
216 -1.7953998446464419 2.2072911957543826 5.3467631234187802 97 113 119 0.99089435945874127 38 2272 6 1802 29 2001 1 1471
217 -1.8286518854096876 2.2417197252773335 5.5488498383307352 97 113 119 0.37792214912491673 38 2273 6 1803 29 2000
218 -2.6817539730484943 2.6530500925619935 3.8189357094290508 181 167 153 1.8451354465333392 38 2278 6 1805 29 2007
219 -2.3792096948264909 2.6157605239275523 3.7510391402833698 167 175 174 1.3039091772812526 38 2277 6 1806 4 1739 5 1706
220 -1.7674626111103451 2.6862711535099244 3.8678297541576794 140 152 153 0.88118329430750297 38 2276 6 1808 29 2008 5 1707
221 -10.993028183805164 -16.206810347401337 44.482372190643652 209 195 192 0.84699415072010531 7 1706 38 2339 6 1814 29 2114 5 1891 4 1801 30 1966 31 2019 1 1482 25 1898
223 -2.5180652183995291 1.4310539758637935 6.0831338533155792 123 133 139 1.2405389373265951 38 2323 6 1830 29 2093
224 -2.4237633143674415 1.7181099347659796 6.284327877163312 226 255 255 1.1879860206036497 38 2357 6 1833 29 2096
227 -2.8586384044329458 1.8393942095743607 5.3951052581533645 93 111 119 2.1712783601985932 38 2359 6 1860 29 2139 27 2334 4 1847 26 2452 3 1785 31 2114 7 1770 8 1539
228 -2.836887257626127 2.0068995881735363 5.1148692193241576 146 155 156 1.3639504044715851 7 1773 6 1861 29 2099 5 1872 27 2315 4 1816 3 1772 1 1547
229 -2.8182641770169861 2.1513234342016641 4.645533528419028 119 133 138 2.1604109209154294 7 1736 6 1862 29 2103 38 2361 27 2319 5 1874
230 -2.2790010855479403 2.6010621295389957 3.9250656960975188 129 143 143 1.9584915690363127 38 2362 6 1864 29 2106
231 -9.9229238427331676 -18.673041478038101 43.645986592674284 217 157 126 1.3305202270038972 7 1776 38 2368 6 1868 29 2165 30 2005 1 1508 25 1962
234 -1.971606524987346 2.0490143177344438 5.9826434420063883 148 159 159 1.5661896969580666 38 2401 6 1887 29 2170 27 2344
235 -1.3982035232699088 2.3202119334830269 5.0434141566062234 23 33 28 0.50871002866557824 38 2404 6 1892 29 2173 5 1942
236 -1.9565411748454333 2.6345861189702902 3.8920118880642778 118 134 142 1.522256199931258 38 2406 6 1893 29 2163
238 -2.4875445167807295 0.58827039119471825 5.8003369239943172 15 23 22 2.2135609490430266 38 2427 6 1904 29 2188 27 2360 4 1901 5 1979 26 2475 30 2038
239 0.97188837209424161 1.5865258893940493 8.7263078676086518 174 173 171 1.7254473545168771 38 1363 6 1266 5 972 4 973 38 1364 3 884
240 1.1839514253234733 1.0887501917710962 9.7991773684799082 127 135 137 1.9480745464646214 38 1697 6 1460 29 1537
241 0.22268122971629123 2.2648327295175554 6.4836508576342888 107 118 119 2.4217916193947864 38 1733 6 1496 27 1641
242 0.27471829885606114 2.1920408380022351 6.1570112185046293 111 118 119 2.0911037761402933 38 1948 6 1707 29 1791 27 2103
243 0.3488336919265006 2.1863479172096758 6.0949090666369639 106 113 115 1.5939282423264223 38 2093 6 1709 29 1789
244 0.19893385587305945 2.2992807151416614 6.1386069019533291 127 135 135 2.1019227812658827 38 2270 6 1804 29 2002 5 1763 27 2209 4 1729
246 0.039399286330770611 1.9774322982326549 6.6801063461450285 146 152 151 0.29511098874378361 38 2399 29 2169 5 1937
247 -5.6143108259042735 -5.6777319402332171 23.532583978209466 22 41 40 0.72082941400577605 38 1255 6 285 29 1071 27 537
255 -1.0013970753437811 1.8482929961125281 6.667068178978913 94 106 109 1.4823206101460793 7 1646 29 1913 38 2081 6 1627 27 2099 26 2375 31 2001 1 1503 25 1872
258 -15.733798989920244 -17.41286631944249 39.728776697057086 217 197 191 0.84740076078770088 7 96 29 70 8 535
259 -14.886382012222112 -17.811695232279572 40.683187052456844 255 216 191 1.1747053058634291 7 95 29 71 8 536
264 8.0735596529155114 -23.564589307241619 57.347180473273724 187 178 163 0.71581645985498199 6 805 29 117 5 60 4 146 3 753 2 949
265 -9.0368499450560424 -17.820207336208863 43.902188040504285 38 27 5 0.69557247659962951 7 748 38 347 29 122 4 166 30 900 31 832
266 -16.082761391662256 -16.031468025042788 39.84298320374559 225 199 193 1.1355028156093823 7 116 29 128 30 226
267 -4.1783243515269817 -20.725101632393574 52.354085059554919 67 59 52 0.80000843162146851 6 169 29 142 30 241
268 6.0581211046299135 -21.039252737662025 58.349025711986549 30 8 3 0.65556338312597318 6 200 29 176 5 114 26 1229 3 146 30 268
272 10.653773787122358 -20.490029147842989 64.633549521345174 167 165 161 0.91260720873557477 6 832 38 432 29 235 5 158 27 415
273 11.568056426405793 -20.437127730839411 66.027702627145914 65 44 35 1.0072417680942851 6 249 29 245 5 165 27 422 26 569
274 11.203366959370555 -19.826558313926689 64.14581331840489 65 44 35 0.93079220676907071 6 250 29 246 5 166 27 423 26 568 2 429
275 -9.2515318357631049 -7.2824956825854743 26.017075105682039 34 53 54 1.2190338120363464 7 774 29 262 31 1269 25 837 8 577
277 0.050021240549011026 -11.367053100646256 43.455827374455673 207 179 159 2.3877863929647059 7 783 38 520 29 313
279 -5.7186138519139078 -5.6036558855008316 23.691813517244476 243 245 247 0.30558812771342087 38 1264 29 345 27 1210
280 -4.7050953254057015 -5.8875267761798664 24.766568318318537 38 50 62 1.0205576388458037 6 307 7 808 38 1258 29 349 5 230 27 543 4 314 31 909 1 651 25 878
282 -4.7519859494349701 -5.7078934229661282 24.488218065470083 242 248 250 0.67836559371559557 38 583 29 355 5 239 27 1212
283 -3.8421254749744844 -5.4364174307197173 24.205072192976463 243 223 215 0.13877981318230875 38 589 29 366 4 326
284 -1.3879726497072826 -4.4325143692252054 23.548173044917089 37 41 30 0.9758939980557193 6 891 7 321 29 394 38 1284 5 299 27 589 4 354 26 1310 1 286 25 893
285 4.1677116781436396 -4.5549828263265928 24.84037940579708 82 40 13 0.9727206994864912 6 897 29 395 5 890 27 579 4 899 38 1281 26 1304 30 990 2 520
286 4.1677116781436396 -4.5549828263265928 24.84037940579708 82 40 13 0.9727206994864912 6 898 38 1282 29 396 5 891 27 580 4 900 26 1305 30 989 2 521
287 5.7419490071238508 -3.1244472536905437 22.811729170748531 41 9 0 0.47414576105513206 38 644 29 416 5 908 4 920 26 1317 3 326
288 1.3613087362453533 -2.4778374560124066 19.34435079570089 103 82 54 0.9661287295095452 6 416 29 418 4 399
289 6.4314103303796601 -2.7713217055697861 21.20955305559826 255 253 234 0.73048702699704515 38 645 29 423 27 1243 4 385 3 323 2 1039
290 6.4659698510439139 -2.6352459275454945 21.127741837834709 35 17 7 0.81803290976543719 38 651 29 427 5 342 27 616 4 391 2 560
291 6.2279497102494243 -2.4362534148346193 20.966196329713117 73 51 1 1.0914454547728827 38 654 29 437 5 918 27 623 4 401 26 755 3 853 2 566
292 6.2144483675764413 -2.4895088840939836 21.440918120160404 60 32 0 0.86182618017402512 38 657 29 438 27 1249 4 922
293 4.7039041060474389 -1.886703253246298 19.6968177550728 255 253 154 0.63301710137783007 38 667 29 447 4 410 26 1326 3 859
294 1.9187437808611429 -1.4854705984771557 17.59383268316871 29 28 21 1.2520774834351633 6 442 29 449 5 372 30 523
295 2.0911195188773348 -1.4396184608587599 17.690715485412284 5 5 2 0.49394833468803118 38 688 29 450 5 928 27 1267 4 935 26 783
296 -0.14165443972348107 -0.75600864956781777 14.757449795034972 30 50 47 0.40237666687074225 6 448 38 703 29 463
297 -0.41086086317634313 0.56625378186898634 10.732561168497812 161 160 157 0.20286320532877425 38 750 29 522 30 595
298 -1.8820942981342466 0.86546420764068188 6.1453738294078821 11 19 16 0.95136784623130966 6 954 29 528 1 437
299 -1.2281145432165581 1.1344379492763823 8.5034409069139745 95 100 102 0.85047476584881432 6 969 29 556 5 964 4 969
300 1.5965005704927551 1.0743854538183635 10.473304298336016 160 163 163 1.320197696083367 38 762 29 557 26 1384 4 490 30 1065
301 -2.9682541141730652 1.2845797473740297 6.6939036524748365 146 154 158 1.1592037039042378 7 929 29 573 27 820 26 1421
302 -0.75474081454191255 1.4845911276867689 7.8658043940019171 69 69 63 0.60389348953814048 6 541 29 584 31 1049 1 774 25 1007
303 -4.139600511248978 1.6543759436677228 6.7054192586022934 255 252 255 0.47129059855438066 6 986 29 596
304 -4.0435212155863578 1.7895683259877271 6.6135556257658621 31 32 26 0.83481440670094464 6 557 29 611
305 -2.664296448359698 1.9570379274287621 5.531463199120048 146 153 154 0.95226887679972094 6 1012 38 863 29 627
306 -1.3123502415632435 2.1922482208891503 5.4637348554872469 96 102 101 0.33811152755577084 6 1289 29 638 27 1652
307 -2.0429284189855714 2.2176514257678042 4.9590227933057101 136 143 144 0.91162464488987072 6 1293 29 643 5 556
308 0.15009058555758981 2.4042156317358545 5.8360337005752729 6 24 17 0.42839193762517441 38 890 29 658
309 -1.3926725767519637 2.4672577411994756 5.4400289619398547 48 48 38 0.85510715910548141 6 1507 29 665
312 4.8642385989137775 -21.921303711240089 53.409592732294534 14 12 4 0.50290866810667345 6 804 38 340 29 962 5 792 27 301 4 152 26 440 3 95 30 232 2 334
313 4.3008374170020724 -20.817772259788271 51.268675639687977 166 161 161 1.0417028443545979 6 1142 29 964 5 1164 2 337 3 99 26 450
315 -9.3452296465153779 -17.445641545299175 43.858872712815412 220 178 163 0.89229252030409767 7 118 29 968 4 175 26 1219
316 6.2582308404998432 -21.925153906601018 54.733662676033063 218 203 190 0.63844573494673751 6 809 38 352 29 969 5 801 27 318 4 159 26 459 3 103 30 902 2 342
318 -10.053382414323359 -16.762418764231612 45.25419286729008 56 46 39 0.45445805645246118 7 753 29 983 5 109 27 369 26 517
319 -12.855017865841615 -15.284547851952277 41.95863330554517 200 180 173 1.2880855121743719 6 1156 7 1048 29 990 38 1854 4 1137 31 1202
320 -10.568451028011456 -16.267878595522671 44.580396283909735 101 75 61 0.60704589531130615 7 754 38 1180 29 991 5 816 27 1156 4 822 30 912 31 845
321 10.610169991298235 -21.416188788009588 61.143009806215822 6 13 2 1.007413340082199 6 219 38 398 29 1000 5 132
322 -5.6203557959970114 -16.980226855435227 49.432959382695365 188 162 152 0.59364904091703341 7 762 38 1189 29 1004 27 1169 26 1248 30 917 31 855
323 7.189714756087068 -18.889708518472407 60.067933518851817 139 126 119 1.1848521065199806 6 833 38 439 29 1027 5 837 4 242 4 244 27 419 3 192 2 428
325 3.9506435993567499 -5.1232069335538997 25.752015276571818 4 1 0 0.85465774304456399 6 366 38 606 29 1101 5 283 4 338 3 276 2 512
326 4.0745186007503547 -4.9738646704203378 25.533207240782939 252 218 197 0.67182477595198042 6 893 38 1278 29 1104 5 886 27 563 4 340 3 279 30 988 2 1025
327 -2.723321748340751 -0.62777812507989728 6.678748266769075 132 131 130 1.0950006462891821 6 885 38 1660 29 1107
328 -1.0527483942114406 -4.4717717958214802 24.340798834270732 16 23 18 1.5568500464077872 6 894 29 1108 27 1237 4 909 5 305
329 4.3463432169996725 -4.2586359532005265 24.116581037119111 86 57 30 1.4187583021727503 6 1221 29 1111 5 894 38 627 30 994
330 5.1326313596367967 -4.490675180631289 26.007122836972709 70 47 18 1.8535280891732904 38 633 29 1112 3 293 4 360 2 529
331 6.6819499151504136 -3.0801804731440243 22.533536875282731 64 25 0 0.78834407693468211 38 1295 29 1127 5 905 27 1242 26 1315 4 1192
332 -0.8071626799459648 -1.4176780544225889 15.677009026360697 191 187 184 0.86194440905806857 38 1307 29 1139 30 1354 7 1473 31 1755 1 1121 25 1617
333 2.5137404482727361 -1.4732753486138774 17.619032628885183 251 232 201 0.9909598889076946 6 926 38 681 29 1142 5 373 27 649 4 930
334 2.2314001746806515 -1.3466160955549238 17.537310884264514 9 6 4 1.4513033081155537 6 1231 38 1314 29 1145 5 929 27 1268 4 937 26 1347
335 4.9503758823633186 -1.4032887088591632 18.729810404281686 39 9 0 0.71834148783766749 38 693 29 1147 5 930 27 650 4 936 26 1337 3 862
336 0.78175039772798838 -0.98156774280350079 15.922341818289983 206 193 184 0.32020538507748153 38 1676 29 1148 27 1599
337 -0.40991037151574689 -0.46132238493568362 13.719761230650441 185 181 177 0.21591612452780951 38 1321 29 1151
338 -1.7707036469988622 -0.12100610583624093 11.885633590637152 22 34 31 0.6327056145992983 6 937 29 1158 38 1326
339 -1.7707036469988608 -0.12100610583623929 11.885633590637136 22 34 31 0.63270561459929031 6 938 38 1327 29 1159
340 -0.74343864636604051 -0.11663793588193012 12.240313578416998 47 54 51 0.96581977213849635 38 1325 29 1160 6 941 5 941 27 1605 30 1366 1 1130
341 -0.41620904880041176 -0.067562968089417683 12.431039751493183 0 12 3 0.77770830052333206 38 1330 29 1162 6 943 5 408 27 716
342 3.7359662877746227 -0.14475394035944261 14.9181296462431 1 2 0 0.85989871135778673 38 1328 29 1166 5 945
343 -0.68660748651090175 0.44434661254947821 10.642788416661832 165 163 159 1.1012178510949779 6 951 38 1340 29 1171
344 0.058618143007177825 0.46456011231115002 11.28982393981892 50 64 62 0.36376084648691998 38 1688 29 1173 27 1607 4 958
345 2.6600137187621988 0.42865650219444318 12.689251948831208 173 176 173 0.74836265851188932 38 741 29 1176 5 953
346 1.7663324301553556 0.55638566534268763 12.199130672436674 13 28 20 0.40059042921709892 38 1345 29 1177 30 1050
347 3.1618167592457249 0.57024801672119607 13.196967423096782 6 14 8 0.47523234345907395 38 1347 29 1181 30 1382
348 -4.7165392560678825 1.1223675247254663 10.742933211305337 109 117 117 1.6400509081377384 38 1358 29 1186
349 1.6720980008686355 1.0916127173927055 10.503088934028336 163 165 164 1.3128312422898258 38 1353 29 1189 5 466 27 1305 4 492 30 1386
350 -0.57249439670394098 1.4952111211116135 7.9677149962493035 78 84 77 0.9231492532177441 6 988 38 1366 29 1201 4 516 26 1739 1 954
351 -0.57422441357655063 1.4943875732781475 7.9587521561882708 78 84 77 0.83789020340374853 6 989 38 1367 29 1202 4 517 1 955 26 1740 25 1483
352 -3.1408546067655903 2.0175438233134675 5.986716059421294 129 139 139 0.048854137167077573 6 1279 29 1229
353 -0.50479731628661884 2.049042433159586 6.5216375913222056 165 161 152 0.7600753923692164 38 1727 29 1231 4 990
354 -0.43184729425845325 2.2426482838895492 5.9198220465815075 124 131 130 0.69387289120214957 38 1737 29 1247 5 1006
355 -1.2883019475561168 2.3867607245597866 5.2506264778371836 78 81 69 0.21666681146947361 6 1300 38 1752 29 1255
356 9.793632377287981 -26.694040541864787 59.80342768875623 169 158 152 1.4612691404667191 6 1344 38 1558 29 1397 5 1409 4 1110
357 -0.21022451968469613 -18.656340889570068 54.229986420190315 160 129 118 0.87873669191254022 7 1057 29 1438 3 785
359 -1.0066092450265183 -17.378325124263132 54.765227778301934 167 139 120 1.0332787000425312 6 1171 7 1286 29 1447 4 1159 30 1524 6 1410
360 -3.1433758290344089 -16.073571578738932 52.797429093871152 141 119 112 1.5020948454704506 7 1291 29 1450 4 848 31 1558
362 -4.014316432704665 -0.91639298478929843 6.4277556530333388 180 178 174 1.7933291346884392 6 1183 29 1488 5 1238
363 3.8236817180249818 -4.9620069431834386 25.64914766754794 255 226 213 0.69353262473897648 6 1219 38 1279 29 1510 5 1241 27 1224 4 898 26 1303 3 834 30 1335 2 1027
364 -1.0132039212415418 -4.5012467812432053 23.848219662573008 250 253 255 0.77438976525118552 6 892 38 1285 29 1511 5 888 27 1231 4 902 26 1700
365 -1.812688243466452 -1.4950917695467862 15.479823148307672 143 143 143 1.1225574582150366 7 1472 29 1521 31 1752 1 1120 25 1614
366 4.7297672030950011 -1.7362954064208687 19.537939111323439 39 4 0 1.0460775895876975 38 1671 29 1525 5 1254 27 1810 4 928 26 769 26 1933
367 4.6303690961368362 -1.6905723276926812 19.176920914686047 39 4 0 0.90708999861915784 38 1672 29 1526 5 1255 27 1811 26 1934
368 3.4540717004852937 -0.090449957888564511 14.586258807408699 197 198 199 1.0871965412880129 38 1683 29 1530 5 946 27 702 38 1331
369 1.8218882406333461 1.1074616960238155 10.553532868911674 163 162 164 1.0640224842340944 38 1698 29 1539 27 1612 26 1944 3 1151 30 1597 31 1785
370 -0.88559750789740066 1.3398611986349422 8.190191468116085 156 156 151 1.2825614356370572 7 1365 29 1541 27 1620 30 1389 25 1477 8 1165
371 0.85362450857557148 1.3143552147626911 9.3575596204631886 178 177 174 0.45711651976795092 38 1704 29 1544 30 1720
372 -0.57289668415949135 1.5598004610572265 7.7742778671305279 147 140 136 1.2861379776638231 6 1467 29 1550 30 1722 1 1288 8 1389
373 2.0329568954470254 2.1892480539114527 7.7522192940714758 154 155 154 0.65917252141398353 38 1392 29 1574 30 1744
374 1.4825101289814384 2.1926888606926633 7.2872610802391318 148 150 146 0.56221736090267482 38 1726 29 1577 27 1848
375 -2.4564210622338267 2.2980345772372432 4.4531906839948174 137 144 143 1.1118153065127752 6 1298 29 1591 27 1877
376 6.1716597105818538 -24.547512975504649 55.000980823567595 169 157 148 1.0573360950510022 6 1346 29 1646 5 1410 4 1112 3 1061 30 1483 2 1283 38 1127
377 -16.076264967077343 -16.551673358282287 41.913553089295675 164 135 122 1.7467336060053187 7 1258 29 1663 30 1491 25 1333
378 -16.646222879203187 -13.451803198128326 39.175077127828843 208 178 164 0.93414881557430973 7 1276 29 1676 5 1459 30 1511
380 -8.0373476354170865 -15.834877601808033 50.042013741843078 168 134 115 0.79658445513659493 7 1284 38 1869 29 1692 27 1780 26 1904 3 1316 31 1549
381 -6.6997876437784161 -15.143786573458101 48.592458841962781 164 136 114 1.0349400301405565 7 1289 29 1694 3 1321 1 1052 25 1380
383 6.5058727753918761 -17.268041973900385 59.979150856385168 221 184 156 0.70770571579388597 6 1416 29 1703 5 1473 27 1555 26 1908
384 -6.1865012513605633 -4.4712147754183436 20.545418707812981 190 188 185 0.94869808826003688 7 1448 38 1886 29 1724 31 1727 1 1254
385 -1.7210445893572248 -3.6738060586244323 21.500526482540355 197 191 192 1.1763510814203024 6 1442 38 2038 29 1734 5 1651 27 1944 30 1703 31 1855 7 1546 1 1336 25 1712
386 -1.7022589988397194 -2.3983161136301865 18.528777461959582 186 182 177 0.73343720714682947 6 1444 38 1893 29 1738
387 6.3123837351004646 -2.8882089035760519 22.316144693468747 255 206 180 0.83231035877529291 38 1892 29 1740 5 1507 26 1926 2 1608
388 -1.3911161430922179 -1.5424036669126733 16.741836114099605 162 161 160 0.24523727919766303 6 1448 38 1901 29 1744
389 -1.6382015974852004 0.14025000379364244 5.803577048113179 231 250 254 1.6361849638552173 38 1675 29 1745 30 1812 31 1775 25 1630 8 1374 32 1552 9 974 33 1010 10 975
390 2.0325362007287877 0.11941208775042195 13.289072804879796 187 179 170 0.0066691088493116236 29 1749 25 1812
391 -0.31918306947646985 0.70557628462972977 10.46207223820098 176 175 171 0.85910884938462451 38 2061 29 1752 5 1515 4 1407 26 2092
392 -3.3325951527280435 1.6391596653103582 5.4493378170610018 229 248 255 1.3973714135826176 6 1614 29 1767 5 1538 27 1996 4 1549 26 2324
393 -2.5972137708031395 1.6850846896053626 5.9447636624930027 216 237 249 0.65865625109354775 38 2079 29 1771 30 1726
394 -0.55606630460796558 1.9598635201796184 6.6791648336994349 159 157 152 0.92709436020933844 6 1700 38 2084 29 1778 1 1424
395 -1.071875162857256 2.0604566845312595 5.8297788931537058 159 159 150 0.61068426672948017 6 1704 38 2201 29 1784
396 1.5332740033067638 2.2965899238978542 6.9880250036266611 132 134 135 0.27809410531310658 38 2091 29 1793 30 1850
397 -12.587045445776939 -18.947766158284239 41.529364486566692 226 156 122 0.83564650703308374 7 1412 29 1835 31 1687
400 5.2322657853002879 -22.634814445413397 53.811519760739344 201 180 167 0.53973249425254233 6 1558 38 1842 29 1842 5 1418 27 1754 4 1331 26 1882 3 1285 30 1668
401 5.6802188482082681 -21.922648003130949 53.710654740243122 172 162 159 0.69221434211046751 6 1561 29 1843 5 1619 27 1758 4 1334 26 1883 30 1670 2 1566
402 9.2841557253461691 -21.317351240572627 61.967038282665975 95 80 68 0.73167065168496059 6 1578 38 2019 29 1857 5 1630 27 1929 4 1499 26 2057 5 1629 3 1463 2 1755
403 -9.0123161478869154 -6.8629938511940987 24.198042730961127 255 253 250 1.0136465518875262 7 1529 29 1865 31 1715 25 1588 8 1238
404 -4.1914711495818846 -5.1390978663404452 23.460126220108823 255 247 245 1.0324392818808088 6 1589 38 2033 29 1871 5 1646 27 1940 30 1697 1 1330
405 -1.1255243169468589 -4.497219384766443 23.540561830181108 255 252 252 1.4379039384643648 6 1674 38 2164 29 1880 5 1649 27 1943 4 1521 26 2072 30 1803 7 1543 31 1738 25 1711
406 4.8285306599829552 -1.5176909853879055 18.855188757191176 48 18 4 0.72781988113906426 38 2045 29 1883 5 1659 27 1812 4 1397 26 2078 3 1484
407 4.8285306599829552 -1.5176909853879055 18.855188757191176 48 18 4 0.72781988113906426 38 2046 29 1884 5 1660 27 1813 4 1398 26 2079 3 1485
408 0.79742007997834408 -0.71139710650435894 14.865682329641647 142 144 140 0.85562941488995403 6 1600 38 1905 29 1888 30 1819
409 -0.035993379393385261 -0.43668366650406837 13.831762420038642 192 186 180 1.479243941484695 6 1601 38 2050 29 1889 5 1511 27 1954 30 1820 1 1417 25 1808
410 1.4260511980269373 -0.095443107140659053 13.833227085945303 158 157 154 1.3839700753143742 38 2052 29 1892 4 1528 27 1956 31 1994 25 1863
411 4.4250922775511023 0.25216637582619261 14.384712048767126 16 16 5 1.1444683309262045 38 2055 29 1897 27 1958 4 1531 26 2088
412 -0.6416417700601168 0.62604757751667872 10.418792566786784 148 146 147 1.9194816735094913 6 1608 7 1641 29 1901 5 1514 27 1965 30 1891 31 1946 1 1357 1 1422 25 1816 32 1664
413 4.616609227141625 0.44934925732370773 13.890350278326867 4 6 0 1.4665166029622561 38 1907 29 1902 27 1822 26 1940 3 1357
414 -2.6132423908879288 1.3215317324971074 6.8784989841131114 51 62 64 1.3980714055322054 38 2064 29 1905 27 2091 4 1535
415 -1.119788870998915 1.5669890977727678 7.2645439195870809 166 156 149 0.29593538117356116 38 2068 29 1907 5 1675 27 2093
416 -2.1372987516081037 1.6668932800376901 6.2443958387810188 211 237 251 0.81324396557422463 6 1691 29 1911 5 1680 4 1648 3 1665
417 2.7877684309357926 1.9516556027411949 8.8838182092976723 89 91 89 0.79994044567261147 38 2071 29 1914 27 1973
418 1.2755027807785884 2.0507956007816119 7.708285564132864 158 156 150 1.2107083035789472 38 2080 29 1918 27 1976 30 1904 31 2003 25 1877 32 1704 33 1284
419 -0.90864649616834015 2.3169935600568778 5.349364446469222 125 130 127 0.736032320085935 38 2099 29 1928 5 1556 27 2004
420 -0.9095445878782884 2.3100139159214468 5.3336924809814192 125 130 127 0.48528724738341333 38 2100 29 1929 27 2005
421 7.7278245125734735 -21.718607083901372 56.593414235870384 186 167 159 0.65709458637536733 6 1660 38 2014 29 1949 5 1725 27 1924 4 1494 26 2051 3 1456 30 1782 2 1745
422 10.369902916737937 -20.646627584761763 66.146532774865776 86 66 51 1.1123474321840261 6 1667 29 1953 5 1729 4 1510
424 11.754416594045018 -19.894771854831468 65.262245067728315 65 55 51 0.70103123221398955 6 1737 38 2154 29 1956 5 1808 38 2249 27 2064 27 2174 4 1614 26 2181 3 1557 2 1934 3 1640 4 1708
425 9.637561699107156 -13.285940056098031 54.978803547344214 157 160 158 1.8182072907796585 6 1745 38 2161 29 1968 3 1644 26 2189 2 1942
426 -3.4241300436286477 -4.390343271758006 21.901492910516563 123 117 117 0.86595992805625521 6 1746 7 1670 29 1972 30 1881 31 1968 1 1448 25 1844
427 -2.4778790170637537 -4.4731491599911184 22.787131041966472 179 132 125 0.64563367627415758 6 1673 38 2163 29 1973 5 1739 27 2071
428 -2.3700310578092476 -2.861201208962282 18.304910312051248 193 187 183 1.4798350152173763 7 1672 29 1974 30 1884 25 1846
429 -1.3425920102740299 -0.38936460670678502 12.396190577243077 172 165 154 0.90940736734400685 6 1680 38 2175 29 1979 1 1455 7 1677
430 2.3054687621759822 0.5614566898854908 12.565520059539226 145 144 141 0.674927307079216 38 2183 29 1985 30 1948
431 1.0877946426094218 1.1664559317671308 9.8374643359856453 45 59 58 1.5195819321021964 38 2185 29 1987 26 2199 3 1492
432 1.1156723025067805 1.1363867594463191 9.9974975370306041 45 59 58 0.37819476814381847 38 2186 29 1988 25 1922 30 1951
433 -2.4178537592916309 1.4337410381276687 6.5225225589991762 59 72 75 0.9898725660612312 38 2191 29 1989 1 1363 4 1536
434 0.056381363684491759 1.5204265892386581 8.0915645372227232 155 151 141 2.0316631870358219 6 1760 38 2065 29 1990 30 1899 1 1465 7 1686
435 -3.5056742328821295 1.5476761161500652 5.3647122386110597 250 254 255 1.9679886631656849 6 1798 7 1498 29 1992 5 1678 27 2207 4 1548 26 2412 3 1509 3 1669 2 2029 1 1368 8 1287
436 -4.2769077964219289 1.9692522528703624 7.1068023984718725 198 205 210 0.19990959413303377 6 1692 29 1994
437 0.46199683501487554 2.4520684617485964 5.9883409663924798 154 154 148 0.81728920209685429 38 2274 29 2005 30 1983 7 1741
438 5.0828339713612749 -23.403668110806183 54.66813107419793 164 149 142 0.73848484608069243 6 1725 38 2230 29 2017 5 1786 4 1598 26 2165 3 1542 30 1869 2 1843
440 7.9081341398966831 -22.978255307207935 55.034976681915033 185 168 152 0.76496880821128055 6 1774 38 2234 29 2019 5 1789 27 2152 4 1683 26 2267 3 1623 30 1872 2 1913
443 8.6034841745276065 -21.092080806991049 62.955628804059025 181 165 156 0.66108989248877625 6 1734 38 2153 29 2029 5 1803 4 1610 26 2177 3 1551 30 1876 2 1850
444 7.7720231949822249 -14.149878566628679 57.871452768031965 255 254 251 1.5913356933276781 6 1744 38 2252 29 2042 5 1814 26 2289 30 1882
445 -0.9215034927613095 -4.1715469667088669 23.552579014353082 70 65 58 0.67555560894364619 6 1751 38 2254 29 2045 5 1816 26 2292
446 -2.7046404089870624 0.24086934225881995 4.1176553582765241 45 50 46 0.54373291442531735 6 1753 29 2049
448 -1.1683901388658533 0.20591816043496719 11.037261674210987 181 175 167 0.5330401712100914 6 1793 38 2313 29 2053 30 1938
449 1.9407949022766333 1.7675855447760327 8.8770792218536752 34 46 43 0.25025031861907771 38 2322 29 2057 30 1982
450 -3.460818791002835 -5.2395148612366631 23.584481099772034 243 214 199 1.3668955587908922 6 1784 38 2307 29 2077 5 1862 27 2241 31 2029
451 0.5420464071871961 -2.0159578676129959 18.526460539919213 177 178 179 0.68965250046847915 6 1792 38 2309 29 2080 27 2245 5 1865
452 5.399095370918527 -1.9254886380450875 19.816536581221968 255 254 162 0.88420801490079282 38 2260 29 2081 5 1819 27 2187 4 1717 26 2295 3 1647
453 -0.39275092666340938 -1.1292235023075019 15.345410752152043 191 187 185 0.4937624241110718 6 1822 38 2312 29 2082
454 1.1991344947529385 0.88934103369318784 10.141604885168848 173 171 165 1.7945766293019947 6 1826 38 2315 29 2086
455 0.42930115680651215 1.0988653692167687 9.6081685314144654 136 137 134 1.0823159844137422 6 1829 38 2316 29 2089 5 1825 27 2250 30 1978 31 2092 25 1953
456 -0.79049830810373001 1.1501826916237705 8.9814948724869907 106 103 101 0.86913061703327021 6 1827 38 2320 29 2090 30 1976
457 1.4311205438546377 2.1855391074892645 7.2216429480598672 133 136 134 1.205583261820693 38 2326 29 2100 27 2255 30 1999
458 -2.010674230531651 2.6108508617082085 3.7840690049487011 104 116 116 1.2737033812861136 6 1807 38 2363 29 2108 5 1842
459 -11.989370304138587 -18.014298525106284 42.306190848719801 230 175 148 0.6893913826454694 29 2112 30 1919 31 2014 1 1480 25 1895
460 9.4594636011690003 -14.120122097384749 61.384338006408711 36 34 21 1.8790674442011788 6 1819 38 2345 29 2124 5 1900 27 2279 4 1765 26 2354
461 11.522812461786391 -16.884637924622371 72.378867715005313 36 34 21 1.5894242877800244 6 1820 38 2346 5 1901 27 2280 4 1764 26 2353 3 1711 2 1860
462 -0.097022493040207158 0.19910399188341613 11.892139178611934 181 176 168 1.8683019558988616 6 1851 29 2127 1 1538 25 1948 31 2081
463 -0.87851037853453307 1.4607763665360403 7.5947222889843218 130 125 113 0.84771355046941144 6 1874 38 2377 29 2131 30 2009 8 1570
464 -0.8204219262121798 1.7487510331883427 7.1462019571497759 49 65 71 1.0330781785351821 6 1857 38 2381 29 2136 5 1911 27 2328 4 1844 1 1556
465 1.1371946261617203 1.7565877166317587 8.3977580520301878 117 122 122 0.50050207285587145 38 2355 29 2137 27 2288 30 2014 31 2117 25 1972
466 0.94400295232653841 2.0153383103746241 7.7601007174571555 163 159 150 1.1493418069357544 38 2382 27 2330 30 2018 31 2132 25 1983
467 -3.2887616732826768 1.8679457058433584 5.3368526296115864 111 122 122 2.2885652691093115 6 1859 29 2141 5 1913 27 2335 4 1848 1 1546
468 -7.3762638982625077 -6.1187283872346097 23.084286639736607 0 0 0 0.74416383867326785 6 1871 7 1778
469 -0.16889965772454024 1.7013668112990827 7.7335942770364587 116 119 121 0.58010738915239668 38 2378 29 2157
470 -0.15437102190739271 1.7221272880993717 7.9959516601478429 116 119 121 0.7871258159079555 38 2379 29 2158 5 1931
471 0.66855539267271047 2.2037708360598147 6.5245237334739521 107 113 112 0.76875821999829874 38 2386 29 2159 30 2026
472 -0.041849343423015495 2.3435382666536406 5.9695015728038312 26 42 40 1.0957573373179599 38 2402 29 2161 5 1940 27 2314 30 2029 31 2139 8 1579 32 1783
