# 3D point list with one line of data per point:
#   POINT3D_ID, X, Y, Z, R, G, B, ERROR, TRACK[] as (IMAGE_ID, POINT2D_IDX)
# Number of points: 387, mean track length: 3.8246246246246245
159 0.077288309481837458 2.5078409201740839 33.17025926799753 20 21 7 0.96672512087962559 21 670 47 1326 22 779 46 1185 48 1578 24 1270 45 916 23 917
160 -2.5545220172325949 2.8317480838331339 32.528637877616355 89 67 47 1.1267836826008029 21 677 47 1329 22 782 46 1190 48 1580 24 1133 45 923 20 836 44 916 23 828
161 -7.3703342876773936 2.844534760141578 31.094545293229032 88 61 38 1.6391342683730616 21 676 47 1332 22 784 46 1189 48 1581 24 1138 45 917 20 829 44 909 23 831 43 785 19 673
162 -1.0888811978719994 3.0911109623784214 32.800981336312276 101 72 46 0.5854582002362213 21 798 47 1333 22 891 46 1367 23 922
163 0.45800478512633858 3.1019300216669494 33.146707397944084 0 5 0 0.79750844937955012 21 799 47 1334 46 1204 48 1732 24 1274 45 936 23 921
164 -11.124829745508247 3.0127020152424286 29.658733257473052 114 94 72 0.96001943231073972 21 681 47 1335 22 790 46 1197 45 918 20 830 43 939
165 -11.155753415499554 3.4294341669617014 29.472323106435507 105 79 54 0.85110524091010054 21 693 47 1339 22 795 46 1208 45 933 20 841 44 919 19 680 43 948
166 -1.2090465944617745 3.73632622201632 32.60125831097082 49 35 19 0.87501780631948534 21 810 47 1340 22 898 46 1377 48 1585 24 1146 45 1072
167 -10.967328856852523 3.6393629180507308 29.502627695791578 11 8 0 0.76669583761361748 21 808 47 1341 22 797 46 1212 45 1067 20 958 44 1065 19 801 43 950
168 -7.6851444882322308 3.7909933151135435 30.476256833150281 94 66 39 1.9430310035675145 21 696 47 1342 20 850 44 930 19 686 43 799
169 -11.135841071843201 3.7811752977229247 29.336176309343163 102 73 49 0.96399576966389655 21 547 47 1343 22 649 46 966 20 847 44 927 43 798
170 -10.528745586799472 4.0493023410878104 29.516261052167277 53 29 5 1.548279160987285 21 700 47 1346 22 650 46 1218 45 950 44 931 19 689
171 -10.346827372571857 4.2834211416321937 29.417523994595985 87 63 44 1.7911828379435291 21 703 47 1348 22 802 46 1221 48 1588 45 955 20 851 44 935 23 702
172 -2.8100970362958169 4.8125823870141407 31.6109366641004 132 100 61 1.1883339730502731 21 709 47 1349 48 1589 24 1149 20 856 23 841
173 -7.3884282578464964 4.7558528423878244 30.13427835315051 105 80 61 1.1381545432412288 21 706 47 1352 46 1224 48 1592 45 964 20 855 44 942 23 843
174 -7.6836979858523673 4.7957125265249365 29.998927873962394 79 52 30 1.1386650613596929 21 708 47 1353 46 1226 48 1754 45 965 20 969 44 941
175 -5.5846936957451883 5.1737222480989082 30.542483403099119 123 90 60 1.1197295623523615 21 821 47 1359 46 1384 48 1597 45 1078 44 1073 23 845
176 -3.1899445070125645 5.3096575848274608 31.222314909679877 135 99 62 0.99858719348790848 21 717 47 1360 46 1003 45 976
178 -5.8770616046326607 5.5126997703741605 30.164174361637109 92 85 71 2.0760331173816464 21 719 47 1367 48 1367
179 -3.9069271351203576 6.4972551843804558 30.414138118005564 32 22 5 1.4010095815511194 21 831 47 1370 22 822
180 2.4817327469227664 9.2580488460351198 31.514784574626766 132 93 56 0.96931047630754275 21 728 47 1380
181 0.13048614768854438 9.095043209269539 30.327111480364231 48 44 35 0.74575403764562598 21 729 22 831
182 2.8832184326144534 9.6556047153069695 31.510141224865581 20 13 1 1.406357732142026 21 731 47 1382
183 3.2707678135537339 9.7896127049862098 31.590258711611856 21 13 0 1.3373626389868365 21 732 47 1383
184 3.9774687761178749 10.079346920263095 31.700551853383693 4 2 0 1.4150961058762246 21 735 47 1386
185 -1.4647050245541982 10.228303074411006 28.932085552968452 19 19 5 0.82570700113769413 21 736 22 688
186 -1.4647050245541982 10.228303074411006 28.932085552968452 19 19 5 0.82570700113769413 21 737 22 689
187 -4.6665901228805495 14.233472944119418 27.79247821496628 0 5 0 0.36409263812526177 21 591 47 1396
188 -5.7484299157057448 15.005805201144025 27.107609762897326 70 70 59 0.34982959050799484 21 595 47 1398
189 -6.1161242077075277 14.980306869027629 26.955555673412608 73 70 61 0.032562579845720245 21 594 47 1399
190 -6.8461029535791971 15.081871801491019 26.706272972771618 71 69 57 0.028524035282912863 21 596 47 1400
191 -9.7989549719586755 19.228122717785219 24.87604669126225 49 48 35 0.1067505863622909 21 450 47 1406
192 -7.1921113031602228 0.87101151567415835 31.674090763638048 5 3 0 0.82913146578088215 21 783 47 1457 46 1350 48 1835 24 1345 45 1035 20 926 23 986
193 -6.5778545151561225 0.98725264802431878 31.839995442049251 4 5 0 0.78949606575500297 21 875 47 1460 46 1353 45 1123 20 1024 23 987
194 -1.2304734661034558 1.1592006573356779 33.15549318781828 72 54 38 0.93442218322029902 21 788 47 1461 46 1461 48 1717 45 1125
195 -3.4647575001021744 1.288857223076 32.607909357429456 13 14 3 0.67269320217153927 21 877 47 1462 22 883 46 1355 48 1718 24 1263 20 1026 23 909
196 -3.4647575001021744 1.288857223076 32.607909357429456 13 14 3 0.67269320217153927 21 878 47 1463 22 884 46 1356 48 1719 24 1264 20 1027 23 910
197 -10.60065507706083 1.9715884737358078 30.435760540963976 0 4 0 1.3638307320473453 21 879 47 1469 46 1358 48 1723 45 1048 20 1029 44 1040 23 914 19 791 43 762
198 -7.7268256660371097 2.5402964110833923 31.208760394517103 124 88 52 1.4008575658065323 21 795 47 1475 22 780 46 1184 48 1728 24 1272 45 1058 20 826 44 903 23 920 19 792 43 936
199 -10.880405496998218 2.6500208077683061 30.031794676765561 17 10 0 0.74672921787040869 21 883 47 1476 46 1364 48 1730 45 1057 20 947 44 1053 19 794 43 935
200 -7.0144416820215145 2.9584159700371973 31.138795793986688 92 57 28 1.8731183252956958 21 797 47 1477 22 890 46 1365 48 1733 24 1139 45 1060 20 949 44 1061 43 942 19 796
201 -10.898050819119943 2.9611108772835735 29.794073673602639 5 7 0 0.6605391459348734 21 796 47 1478 22 788 46 1193 45 1059 20 948 44 1057 19 795 43 940
202 -6.5675836962723801 3.0220301085666308 31.178004208566026 98 63 31 1.4627563761664735 21 682 47 1479 22 789 46 1198 48 1583 24 1140 45 924 20 835 44 1063 23 924
203 -2.4146966499726457 3.1236930245152199 32.480481453980616 32 22 3 0.93284226063715114 21 884 47 1480 22 892 46 1366 48 1734 24 1275 45 1131 20 1035 44 1116 23 923
204 0.41396235266580694 3.3917670024035154 33.054133223051316 161 170 178 0.6497648468174636 21 805 47 1481 22 893 46 1370 48 1736 24 1142 45 1069 23 833
205 1.4896875399403156 3.4235833433330138 33.311413485638006 21 18 4 1.0952611877712368 21 807 47 1482 22 895 48 1737 24 1276 45 1070 23 925
206 -1.6362149567653863 3.4569459880987794 32.616693362867544 90 69 48 1.0069481060092935 21 804 47 1483 22 894 46 1369 48 1738 24 1279 45 1068 20 1037 23 928
207 0.83741693614035306 3.5058408287898928 33.137006718626658 149 159 167 0.73696613983808146 21 888 47 1484 22 896 46 1374 48 1739 24 1278 45 1138 23 926
208 -8.216092857343158 3.5126299741559244 30.548159682615161 127 97 71 1.3379799597350033 21 806 47 1485 22 897 46 1371 48 1744 24 1280 45 1066 20 955 44 1066 23 931 19 892 43 1054
209 0.71960104650164725 3.7575434247539974 33.036406558060776 8 12 1 0.68833452234144643 21 811 47 1487 22 899 46 1215 48 1584 45 1073
210 1.6636821617749868 3.7997005980289877 33.244737916456842 112 122 124 0.88943289316656127 21 813 47 1488 22 901 46 1379 48 1743 24 1145 45 1075 23 835
211 1.6636821617749868 3.7997005980289877 33.244737916456842 112 122 124 0.88943289316656127 21 812 47 1489 22 900 46 1378 48 1742 24 1144 45 1074 23 834
212 1.3628868827481329 3.9896500908474359 33.13685975096962 15 18 7 0.50300337795225358 21 893 47 1490 22 969 46 1381 48 1746
213 0.98747322790167125 4.1959700653140679 33.068282805163733 53 46 36 0.80318287325421822 21 894 47 1491 46 1471 48 1748 24 1282 45 1141 23 932
214 0.28854068999747995 4.5219494088808769 32.7404427025186 2 3 0 0.92378478517631724 21 818 47 1494 22 904 48 1751 24 1357 23 934
215 -8.390500242870786 5.4671130423337173 29.616393642193145 49 50 40 0.10389693337417655 21 718 47 1496
216 -8.3429475109938203 5.7944463207293397 29.492508548161876 200 206 217 0.0047570087094465467 21 826 47 1497
217 -8.3429475109938203 5.7944463207293397 29.492508548161876 200 206 217 0.0047570087094465467 21 827 47 1498
218 -5.3008759289163789 6.2341326224405478 30.152271695001584 185 191 192 1.5883818212448684 21 830 47 1501 22 914
219 -5.7304186354468847 6.7928987308814177 29.86946631687784 83 73 56 0.12183640019900534 21 832 47 1504
220 3.8924499761407052 8.1762605860017672 32.325432295069461 134 100 65 0.53605768608024662 21 726 47 1505
221 1.0374012432627371 8.9603432833158543 31.188466817515863 24 12 3 1.1977782495578915 21 839 47 1509
223 -2.3380572403846678 9.3877172007029035 29.951851657823596 82 70 50 0.77142181780416941 21 841 47 1512
224 2.4109993155133029 10.080707688337455 31.215269101305545 46 44 30 1.362830840185598 21 734 47 1513
225 2.4109993155133029 10.080707688337455 31.215269101305545 46 44 30 1.362830840185598 21 733 47 1514
226 4.858424218206026 13.683476536965237 30.671097935607222 1 4 0 0.57183661516971251 21 742 47 1522
227 4.9037056502086314 14.58784941802395 30.361314679946211 27 28 14 0.31890582506414139 21 749 47 1523
228 -5.7291202043170557 14.638435995688223 27.316746045036894 103 106 101 0.11773483650198691 21 854 47 1525
229 0.35431502209436605 15.87129233218862 28.625501936277065 62 59 43 0.16195710517051462 21 753 47 1528
230 -8.4077263097917623 15.241524712128058 26.267326454401505 74 71 62 0.064718894775602942 21 748 47 1529
231 0.5459165836706098 16.94825508541506 28.406341527636823 20 22 9 0.79129647085188726 21 861 47 1532
232 -9.4279583621673044 18.998564148301547 24.998950986572009 58 52 38 0.101743334237857 21 600 47 1536
233 -3.2035951296586771 1.0652629908961673 32.700529856945572 114 82 54 0.78547585243470552 21 876 47 1570 22 960 46 1459 48 1837 24 1261 45 1124 20 1081 44 1110 44 1175 23 988
234 -2.0654270821678162 2.2891138484307287 32.780524333377812 115 89 66 1.1458077885307203 21 882 47 1576 22 963 46 1464 48 1843 24 1268 45 1129 20 1031 23 996
235 1.3945863969592551 2.8848360743518153 33.36433876266458 96 70 45 1.2561472098694499 21 949 47 1577 22 964 48 1844 24 1351 45 1211 23 997
236 -2.6795733314905359 3.3652524495132323 32.392244269917001 94 73 52 1.3685190162617311 21 886 47 1579 46 1465 48 1847 24 1353 22 965 45 1132 20 1036 20 1091 44 1119 23 1000
237 -0.91903734193305398 3.372424975941867 32.751284460529504 28 26 11 0.73243563847020177 21 887 47 1580 22 966 46 1466 48 1846 24 1352 45 1137 23 999
238 -1.0210292725696306 4.5772406672992352 32.364464283689856 14 15 3 1.5400417291661619 21 897 47 1586 45 1220 22 972
239 -10.042592900203742 4.5211740908545668 29.379995451731507 73 45 26 1.2356378519499203 21 896 47 1588 22 975
240 0.62820003167127492 5.300068692966927 32.695826078781941 84 63 38 1.6508118760822572 21 898 47 1590 22 976 48 1854 23 1065
242 3.2510989406486299 7.5813282879363957 32.433582036346415 12 1 0 0.29276868506975684 21 904 47 1596
243 -9.7673841107349126 8.7423033125408196 29.65937736581742 121 119 109 1.236548194264629 21 833 47 1598
244 -1.3271891295450304 9.1409230703847957 30.367061874594445 51 44 32 0.89565629390095081 21 840 47 1599
245 -9.9055365256372863 9.0870472972605665 29.424601868199545 120 124 119 1.1624354931416943 21 835 47 1600
246 -9.9055365256372863 9.0870472972605665 29.424601868199545 120 124 119 1.1624354931416943 21 836 47 1601
247 4.6837110147949934 12.554076061743203 31.065292550933727 68 62 45 0.4492238681387799 21 845 47 1603
248 -10.324142683004926 14.058029464027415 26.75891474977211 121 122 115 0.16300233511078566 21 846 47 1610
249 -9.428336408016122 14.998172265492187 26.274565039595977 112 111 106 0.42437319297688264 21 855 47 1611
250 -9.428336408016122 14.998172265492187 26.274565039595977 112 111 106 0.42437319297688264 21 856 47 1612
251 -9.0225496307598281 20.210691225697929 24.716904566979331 86 74 52 0.31167072769586734 21 758 47 1615
252 -3.8738206804403585 1.1568967291737706 32.531970798745114 101 80 60 0.64620274413114687 21 937 47 1643 22 1010 46 1538 48 1920 24 1411 45 1197 20 1082 44 1177 23 1041
253 -6.7512102708767845 1.3218992355440713 31.61754312574919 134 96 63 1.5654089832590004 21 938 47 1644 46 1539 48 1924 24 1415 45 1199 20 1083 44 1176 23 1044
254 -2.6421682234560344 1.3673611570068724 32.801491552664864 106 80 52 0.86537552614738367 21 987 47 1645 22 1013 46 1541 48 1925 24 1414 45 1202 20 1122 44 1224
255 1.3880393862460867 1.3916004924462546 33.231917620170194 81 70 49 0.79914988933865505 47 1646 22 1014 46 1542 48 1926 24 1412
256 -11.423458507266751 2.1896932119331529 30.053140991760568 10 9 0 0.87469876962243087 21 943 47 1653 46 1545 45 1206 44 1182 19 942 43 1103
257 -11.416262759256949 2.1827740429056952 30.086287105825786 10 9 0 0.81824549704303162 21 944 47 1654
258 0.79284144032123882 2.3114640390874426 33.426969986801609 247 239 235 1.2506749088370555 21 946 47 1655 22 1021 46 1553 48 1935 24 1423 45 1209 23 1051
259 -8.0996105747506597 2.383177104777475 30.986535666149837 8 10 0 0.82006926396700608 21 992 47 1656 22 1069 46 1606 48 1938 24 1427 45 1246 20 1127 44 1226 23 1053
260 -3.9578055760363604 2.9881842757790977 32.087865474068742 125 88 54 1.3460434859035839 21 948 47 1659 46 1610 45 1248 20 1128
261 -2.0796759735441319 3.5131532193251149 32.438194089183085 108 85 61 1.1244065302715402 21 952 47 1661 22 1027 46 1555 48 1943 24 1433 45 1213 20 1092 23 1057
262 -2.0796759735441319 3.5131532193251149 32.438194089183085 108 85 61 1.1244065302715402 21 953 47 1662 22 1028 46 1556 48 1944 24 1434 45 1214 20 1093 23 1058
263 -6.34062592724149 3.4637167951440291 31.118553096759559 112 88 62 1.3964591136853459 21 951 47 1663 46 1554 48 1945 24 1436 45 1212 20 1090 22 1026 44 1186 23 1060
264 0.035406258071519647 3.6694254882331028 32.918379988610816 2 5 0 0.63403007558964752 21 954 47 1664 22 1029 46 1557 48 1946 24 1435 45 1216 23 1059
265 -1.6394556061595011 4.0137145675332055 32.445361849711482 30 23 9 1.3002649053861994 21 955 47 1666 46 1558 48 1947 22 1030 24 1437 45 1217 20 1096 23 1061
266 -5.4450544290923899 4.477788188414789 30.838905058699364 124 94 62 1.4710681743213181 21 997 47 1667 46 1613 48 1948 45 1252 20 1131 44 1190 44 1261 23 1100
267 0.15049137330271256 4.755262441485872 32.699767147744538 14 11 0 1.7000560870060224 21 961 47 1668 22 1035 46 1561 24 1438 45 1221 23 1062
268 -6.5311812982202939 4.5510783072208074 30.523162172998536 94 64 44 1.1248008460860177 21 959 47 1670 46 1614 48 1949 45 1251 20 1130 44 1232 23 1063
269 -2.4825122127177415 5.3780132169061217 31.474162047668337 197 202 205 2.0587997240394982 21 962 47 1673 46 1563 45 1226 20 1099
270 -8.6456969752281463 5.6751344141719864 29.455317395517575 187 192 195 0.042066119596178862 21 963 47 1674
271 -8.6456969752281463 5.6751344141719864 29.455317395517575 187 192 195 0.042066119596178862 21 964 47 1675
272 3.051995543207406 8.0809755762952573 32.216022714251508 173 118 19 0.84190266640142086 21 1005 47 1680
273 -9.4314825804214006 8.9864364013787057 29.617827211619311 0 4 0 0.60396116928778509 21 905 47 1685
275 -1.0803395650717698 12.647641489899943 27.303555186329902 0 4 0 1.3522396496575362 21 915 22 987
276 -9.9071693844870534 14.628180912744796 26.292103495980236 47 47 36 0.046953686666794947 21 849 47 1694
278 -10.333656536359515 14.721568964102493 26.251703724750229 127 127 119 0.23159897977228522 21 914 47 1696
279 3.822698111160328 16.658842451613491 29.402254832291867 49 43 29 0.074809223033654115 21 922 47 1697
280 -3.0217337993331475 17.123198111587467 27.246173671102632 16 19 8 0.59758017210879832 21 924 47 1698
281 -3.0217337993331475 17.123198111587467 27.246173671102632 16 19 8 0.59758017210879832 21 923 47 1699
282 -2.8922437994416264 17.607337916439576 27.132038927479368 40 42 30 0.69309434015798277 21 863 47 1700
283 1.8712564979561819 2.3677110409099051 32.815537249829077 90 64 38 0.82315244739587934 47 1715 46 1607 22 1070 48 1991 24 1474 23 1094
284 -9.2094064054834508 2.6199226504711057 30.518417782050978 94 63 36 1.1133943664410488 21 947 47 1716 22 1024 46 1608 48 1995 24 1478 45 1208 20 1089 44 1229 23 1097 19 978 43 1137
285 -1.3879757442746126 2.7209045769303866 32.786535914293331 105 79 49 0.83223813955962456 21 993 47 1717 22 1071 46 1609 48 1994 24 1477 45 1247 23 1096
286 -0.041489798011465573 3.1355698560861507 33.038204122200007 214 214 209 0.70617936466889619 21 1028 47 1719 46 1646 48 1996 45 1277 23 1098
287 -0.050075096474717862 3.1354103435401464 33.03397659095419 214 214 209 0.62989638856650243 21 1029 47 1720 46 1647 48 1997 23 1099
288 -5.7569064237878935 3.3435125036623949 31.354193328904039 33 18 4 1.3774035541767364 21 995 47 1721 46 1611 48 1942 24 1479 45 1249 20 1129 22 1072 44 1230 23 1056
289 -2.0254591835133962 5.6488471103041862 31.611521994813568 25 18 6 2.3347219235031096 21 1000 47 1725 46 1617 48 1999 24 1443 20 1135 23 1071
290 -7.4890023892760036 5.5391507559328765 29.605594461173414 131 110 82 2.1499818599796119 21 999 47 1726 22 1076 48 2033
291 3.3779598016978243 9.9609427123497642 31.612731862881173 21 20 10 1.5309757988828832 21 1006 47 1729
292 0.90568753765692434 11.360182428907214 29.154460369969357 28 29 14 1.6269945855633923 21 1007 22 1082
294 -3.5368637321891789 5.4469566583683307 31.065026100336855 121 62 25 1.0455163190921584 21 1032 47 1757 48 1998
295 0.23098711805265493 8.0187988348969448 31.095215600023465 178 126 34 1.2618148654474457 21 1034 47 1760 22 1106
296 -0.64795777040651836 10.793615627817109 28.947992612777437 69 59 40 0.89190372955731956 21 1036 22 1109
297 -0.45931162515114782 11.402987389353402 28.66281804994459 0 4 0 0.77440572028130994 21 969 22 1111
298 -0.40076305689103836 16.495310356788547 28.146772029348259 26 28 15 0.72380560817371142 21 977 47 1765
299 -0.86261596879500613 17.112122566069527 27.866825640519007 54 50 39 0.27794384458084104 21 978 47 1766
300 -3.7587299017748235 11.39313861932855 28.648041421747156 61 53 35 1.9194014994355388 21 1035 47 1776
301 -7.4901356994714039 16.659034546146749 26.14550984132962 48 46 33 0.49307246326263687 21 1012 47 1782
302 -9.5043912361908323 17.150878382433362 25.510469505018754 48 46 35 0.18777202775083585 21 1014 47 1783
304 -1.3191231783935322 13.345844359459605 28.996650873257568 61 50 34 1.1528418837783181 21 1055 47 1790
307 3.3246449278275785 17.132720518099575 29.108722437255903 0 5 0 0.55471869669145701 21 1064 47 1796
308 -9.2764712240634637 15.897150213018639 25.779212865456703 20 22 12 0.18887996295553433 21 1044 47 1797
309 -8.0940383239684479 3.3317546442196058 30.511969154983735 105 78 47 1.5252912251224806 21 1075 47 1802 46 1692 48 2068 45 1329 20 1210 44 1318 23 1162 24 1524 19 1072 43 1247
310 -1.2977757763555589 6.8853985153868607 31.54360259352406 134 94 60 1.9702365199187559 47 1804 22 1159
311 -1.1141000416804872 18.080672996533984 27.663151554855123 0 4 0 1.5233388704866693 21 1065 47 1805
312 0.72966913803163569 4.9175895108026824 33.062525404960191 54 39 22 0.70689523874879434 21 1085 47 1811 22 1165 48 2073
313 0.73577940820335741 4.9142718265456136 33.056065008143761 54 39 22 0.79484447872243003 21 1086 47 1812 22 1166
314 -0.36669954608336691 -2.2495405547137923 32.327060967103073 79 53 31 0.85406123624058894 47 620 22 9 46 518
315 -1.112166594716862 -2.0159736607618046 32.93328440356445 163 157 149 0.74413860093242745 47 633 22 10 46 71 48 781
316 -1.112166594716862 -2.0159736607618046 32.93328440356445 163 157 149 0.74413860093242745 47 632 22 11 46 70 48 780
317 -1.8565664511936379 -1.7468972525944062 32.505441455857898 128 102 73 0.38741961761116106 47 115 22 15 48 168
318 -3.3291359974311767 -1.6339719216273099 32.36413609266959 121 102 86 0.76399854330106454 47 992 22 18 46 1098 48 177
319 -2.8607701589934398 -1.6517664537314385 32.729374354639042 6 1 0 0.73088953515358579 47 117 22 19 48 178
321 -2.3421912795096844 -0.2719466992170641 33.216574888304905 9 2 0 1.0246435606386337 47 181 22 48 48 254 20 373
322 -2.3421912795096844 -0.2719466992170641 33.216574888304905 9 2 0 1.0246435606386337 47 182 22 49 48 253 20 374
323 -1.7704788243864313 0.38230621897667955 33.272836130671337 58 44 27 0.77427156857995783 47 202 22 61 46 199 45 23
324 -0.42600554451549311 0.38454671622128639 32.925417350473538 91 72 51 1.0152681826842105 47 203 22 64 46 596 45 712
325 -4.5807548564956369 1.0506354981403543 32.431227783920463 91 70 44 0.83464615792107377 21 11 22 80 24 215
326 0.91496901457353508 1.8121756958845772 33.478386146989401 53 38 20 1.4077684387317437 22 101 46 631 48 1571 47 1321 24 237 45 480 23 60
327 -9.4553630498413792 2.3968092498355218 30.279783880670905 73 52 32 0.78023511331062145 47 770 22 111 48 927 23 429
328 -2.2515312438477206 2.4821047678538997 32.690908593529194 41 21 0 1.0152935189756009 21 331 22 112 46 649 48 923 45 500 20 675
329 1.1119612810629889 2.6172696366269714 33.23575855343838 16 12 0 1.5994996062044564 21 44 22 114 23 85 48 384
330 1.9970700710530598 2.6918098708271647 32.690191652122145 101 80 53 0.64857601673488807 47 275 22 118 46 657 48 391 23 88
331 -3.5613132513717956 2.7759098226024679 32.622160047997077 13 0 0 0.8041867931557678 47 279 22 120 46 270 24 272 45 106 44 166
332 -1.9460089164363303 2.8756110469464051 33.147588087697478 109 84 59 0.68735418914170288 47 280 22 125 46 274 48 400 45 110 20 131
333 -2.9750113627933836 2.7845674956569968 31.264518947161861 14 3 0 0.68118430033085586 47 785 46 272 48 402 24 667 44 496 23 440
334 -2.9750113627933836 2.7845674956569968 31.264518947161861 14 3 0 0.68118430033085586 47 786 46 273 48 403 24 666 44 497 23 441
335 -2.8863320850262491 3.0546167369818105 32.46783662541074 97 73 51 2.2798104788685793 21 49 22 137 24 280 45 113
336 -0.41530205179328905 3.2193885132492923 32.917047722687563 253 253 250 0.61641625209363005 21 344 22 140 46 671 23 102
337 0.50335272502015671 3.3138898564880801 32.910085216028683 168 174 177 0.28857707446740744 47 292 22 142 46 287 23 104
338 -2.5483125695694016 3.3948125553447723 33.109458156298231 100 76 50 0.60044278226710746 47 296 22 143 24 289 45 127 20 137 44 511 23 448
339 0.14754619523015378 3.3893067259149059 32.993936900529576 171 185 185 0.84565332321592601 21 58 22 144 23 107
340 0.521540950620767 3.5060019368370541 33.050204382404694 161 177 178 0.55026201229105698 21 69 47 301 22 145 46 294 48 425
341 5.0223929450145661 3.2697450013607794 30.75564508210395 3 2 0 2.5526538081297709 47 299 22 147 23 106
342 4.9484523657148056 3.325188220872453 30.813990391196423 33 35 23 1.5043718869167166 47 303 22 149 48 945
343 1.3982826166684497 3.7936202656487383 33.192162893129293 129 145 150 0.8856226614641125 21 81 22 154 46 301 48 431 45 153 23 115
344 -2.8329695700379371 3.7510143321822387 32.161559003287557 87 67 45 1.5865146869761406 21 76 22 155 46 297 45 537 20 459 44 514 23 458
345 1.396273530161011 3.9110950034683909 33.174358610979809 0 5 0 0.71379363554623831 21 358 22 158 23 120
346 1.6671691525634378 3.9849339454139536 32.996814748765722 1 7 0 0.46501854991850983 47 316 22 161 45 163
347 -0.6265233270496624 4.4181061519512097 32.799451245649976 4 3 0 1.3449085746257128 47 323 22 172 46 321 48 447
348 -0.19493927569649333 4.5019594378219434 33.249749173148423 107 83 61 0.17142493963837549 47 325 22 175 23 137
349 -1.8869893388590553 4.4637432684606706 32.2183893710258 54 45 25 1.6236264645320724 21 363 48 962 20 161 22 176
350 -0.55714112449297792 4.4724160584724393 32.542604429987328 84 66 44 1.4762436140896276 21 95 22 177 46 323 48 451 23 139
351 -9.1169513174098995 4.4204987153775051 30.214235384755725 76 45 18 1.2606933839616932 47 825 22 179 46 317 48 461 45 168 20 149 44 202 23 467 19 368
352 -9.1453593442242589 4.4295391777168209 30.308236039534808 76 45 18 1.1992112647736177 47 824 22 180 46 318 48 460 45 169 20 148 44 201 19 367 43 133
353 -1.4799092557913172 4.9182474665513833 33.469050381681889 239 243 241 0.83180145359286817 47 337 22 188 24 321 23 147
354 -2.4445297243582669 4.9923667301972801 32.331401392555236 82 58 33 1.4922562166884021 47 348 22 190 24 324 45 217 23 156
355 1.8253373123148626 5.0110415589044983 33.038633895820134 12 2 0 0.86555007741735557 21 109 22 191 48 968
357 4.1436130817821306 4.989475159836144 32.89851641823779 2 3 0 1.8537517206329746 47 345 22 193 46 360
358 -5.9261852094999092 4.916670117929578 31.609171608508518 21 4 0 1.7903098101110988 47 350 22 196 46 338 45 201 20 169 44 225
359 -1.8174486227106796 5.7694650791794224 33.34789918923547 8 2 0 1.0252790612141252 47 384 22 208 24 342 23 173
360 -8.6635163264973318 5.1959829239340003 29.259228583816999 41 41 36 0.044156304302781252 21 127 22 209
361 -5.1017113379112189 5.5505198435396084 30.38283728535653 153 119 83 0.23686014890942303 21 139 22 216
362 -0.55358671544272453 5.9091799036861845 31.370809753988702 124 97 71 0.092867139884148381 47 411 22 219
363 0.97085638179215461 6.4948832470102076 31.919353090893274 139 107 76 1.6990021652949818 21 158 22 230
369 -0.29862457800557896 7.9857937024403176 29.974302032417793 144 106 67 0.85935845142321687 47 464 22 256
373 1.8207681807972391 8.882740890648833 29.425926199761061 8 2 0 0.011690473385593526 47 486 22 268
374 0.91649411834049255 9.1254937953557729 29.291570184926822 87 70 49 0.82571577997305923 47 894 22 271
376 3.3537143437011419 9.8270075149171827 28.963280256175246 65 55 35 0.096611184442405296 47 502 22 281
377 3.3057238919140746 10.048107540556567 28.078805006828567 68 63 48 0.55579578473461932 47 509 22 288
378 1.2564213001748468 10.454591261718853 27.230496859969879 83 69 47 1.6915332127307339 47 905 22 292
381 -6.5430972642744747 18.45875001941388 25.942992219426099 0 0 0 0.36746682562530031 21 243 47 930
382 -2.8949395442946679 15.71495888137048 23.413454148631292 79 71 55 1.9919499206083067 21 253 22 344
384 1.917108684918595 -2.3571907939150538 31.574429589968432 28 21 4 1.6222480073080734 47 87 22 368 48 761 24 493
385 1.5497224743149749 -2.1149615967294642 32.593914318384989 22 11 0 2.0012481268154567 47 628 22 372 46 528 48 153
386 -3.4017950328657247 -1.7834684279165951 32.419457681679852 5 1 0 0.95830404957465787 47 111 22 374 46 74 48 167
387 -3.2189232212208543 -1.7280861998704637 32.436315981589807 6 2 0 0.84810012726603923 47 114 22 376 46 77
388 4.4345850822919228 -1.5426484928531612 29.951493107566389 88 69 45 1.4999058027359302 47 647 22 378 48 1177
389 -1.2753680538656953 -1.6913069955923421 32.667957628718376 93 74 50 0.28716930729410989 47 116 22 379 48 793
390 1.4621645747385705 -1.6451708325731096 31.844922076654015 54 39 17 0.71064084427649554 47 645 22 380 48 179
391 4.3201507914738757 -1.4122345488316099 30.076111548608978 85 65 42 1.2607516895350257 47 656 22 381 48 182
392 4.4873762970916689 -0.89037102982528149 30.174964692160778 14 2 0 1.1520390299371945 47 669 22 384 48 212
393 -3.2201309475431645 -0.75569051373083962 33.29746087344428 89 76 58 0.9946013487665244 47 676 22 390 48 826 24 558 20 594
394 0.73587413864300888 -0.70356321763018148 32.876618667903259 16 13 1 1.1064239474176829 47 680 22 391 46 574 48 827 24 555
395 0.0039784145616948985 -0.64462958162143214 32.89173271168918 78 66 48 0.42595175509561778 47 682 22 392 46 575
396 -1.967657520592903 -0.28638847220696145 33.38407178495946 101 86 64 1.4843801128397669 47 692 22 395 46 159 48 844 24 574 20 612
397 -1.7411674191930304 -0.23620648699885693 33.401208789736458 103 82 58 1.8588860425688298 47 694 22 396 46 582 20 617
398 -1.6673620829826739 -0.19458321876234286 33.027974907671414 107 86 63 0.4296845994123919 47 184 22 397 48 1239 24 576
399 0.72607914686469799 -0.13511553072656546 32.936168844441418 131 118 103 0.93160277985285322 47 701 22 400 46 175 48 259 24 164
400 -1.9182375894724051 -0.094191862227527609 32.511798871157367 3 2 0 0.95060655695165519 47 187 22 402 46 167 24 169
401 -1.9182375894724051 -0.094191862227527609 32.511798871157367 3 2 0 0.95060655695165519 47 188 22 403 46 168 24 168
402 -1.5018495247043813 0.024509800960810388 32.408377175477234 8 2 0 0.96038094214137815 47 193 22 407 46 176 24 176
403 -1.5175907969272022 0.016363825008158896 32.524338868178681 8 2 0 0.57229104524299801 47 194 22 408 46 177
404 -1.7526077421606372 0.073664705507831413 33.134409039791748 111 88 70 0.50644979969708359 47 1049 22 410 46 890 48 856 24 175
405 -0.28305492436498103 0.058412132312105576 33.469689333561703 138 127 112 1.2560529153174156 47 195 22 411 46 590 48 269 24 178 45 440
406 0.67252843396053963 0.31313753410873313 32.829242771051973 59 48 29 0.66454638211509631 47 1052 22 412 46 901 48 865 24 885
408 -3.6430624253813635 1.0355292660326658 32.586852421692484 122 97 71 0.77231505266967426 47 739 22 419 46 612 48 892 24 616 45 462 20 410 44 676 23 390
409 -2.7811422113818316 1.529781972308502 32.759813382013689 104 80 58 0.77699279872534288 21 504 22 430 24 919 23 400
410 -3.3361897440023931 1.9823229872486909 32.928698505128793 60 43 21 0.44758395138393259 47 759 22 439 23 416
411 0.5961892277661035 2.0875617669219619 33.369450942525631 66 58 29 1.7922589911932405 21 322 22 440 48 1304 24 251
412 0.58017485874618901 2.2668879715704322 33.267400307594329 252 251 239 1.2632827472312316 21 327 47 765 22 442 46 641 48 919 24 645 23 424
413 -9.6468616668170739 2.3427010432951567 30.107567703962598 83 57 39 0.77548603827950957 47 1116 22 443 46 637 48 1314 20 430 23 666
415 0.53745869978256899 2.934982599053547 32.971101713655329 9 15 6 0.64594502019851596 47 791 22 454 46 664 48 404 45 520
416 -1.505965015036884 3.4150210811766422 33.11628971464441 94 69 45 0.45424897804194969 47 800 22 467 46 674 45 527 23 446
417 -2.7459577531679753 3.5845106272921976 33.021454303371918 85 68 48 0.59817577560366542 47 802 22 469 46 678 24 678 20 686 44 722 23 454
418 -2.8861640562506565 3.8688008665844924 33.612186681181257 99 72 45 0.99286978737169407 47 807 22 473 48 957 24 295
419 -12.136431335449197 3.5696751353978753 29.061574388713886 100 74 47 1.4986288482208834 22 475 46 959 44 714 21 540
420 -1.0198898355445984 4.258905099644422 32.477895841965072 253 251 252 1.1813532862772698 21 361 22 482 46 689 48 960 47 818 45 552
421 -8.0050986060444078 4.5421919477689885 29.98749662890512 99 75 54 1.4379528408077158 21 97 44 525 20 699 19 554
422 -7.3859722234279408 5.0513617861593838 30.958205749984803 70 43 19 1.9472961873585464 47 839 22 497 46 354 45 569 20 483 44 538
423 -1.9782139106805809 5.4946324997201508 32.888110792576988 4 10 3 1.5688321097845301 47 841 22 501 48 481 24 706 46 379 23 478
424 -8.4683916180164829 5.100389647501661 29.263859017633806 34 35 25 1.861212811576312 47 381 22 502 48 486
426 -5.2778575237312024 5.5460195597413984 29.90586460143378 46 35 18 1.4301586435495577 47 405 22 505
427 0.88293195541721714 9.3125839083974817 30.483582340223379 87 71 49 1.1620533305522667 21 424 22 531
433 -2.5455976910931444 17.480609021293802 21.779041006252889 74 67 50 1.0401077166751382 21 458 22 574
434 2.0450650810920425 -2.4069192694563109 31.346991528262404 50 42 29 1.0162436509724342 47 617 22 582 48 754
435 2.4677883084604728 -2.6586449006136115 34.4430456348353 50 42 29 0.50205326705917241 47 616 46 516 48 755 24 489
436 4.4232843516312306 -1.7511962029471171 29.878898970115962 6 3 0 1.5787102008772835 47 988 22 587 48 1171
437 -3.2346829509047832 -1.3981827379072 33.155786460780774 85 69 53 0.72311865854529533 47 1003 22 593 46 847 48 1187 44 813
438 4.812862924698238 -1.2286357088079007 30.052622069468402 9 1 0 0.59593625803875061 47 1004 22 594
439 -1.5976705500284956 -1.1080731831215311 32.830938629052575 97 77 60 0.21818585872348084 47 1008 22 597 48 808
440 -0.70746195163171699 -0.8014235721662496 32.824575148271286 102 87 71 0.47291431013029039 47 1024 22 598 48 1208 24 554
441 -2.4754081981259799 -0.44700964416184469 33.339812596816195 104 80 60 1.248128197005083 47 1033 22 601 46 578 48 1217 24 570 20 607
442 -2.7500539196432809 -0.36295906041599291 33.174307473030666 12 5 0 0.52957731484185466 47 1035 22 602 46 876 44 644
443 -1.1209187381196775 -0.27371916593335255 33.070272710022095 169 168 162 0.55400879060872477 47 1038 22 603 46 879 24 1084
444 0.36036875384275546 -0.19055939446249831 32.573648485314152 88 76 54 0.82641007903792574 47 1044 22 604 48 849 24 575
445 4.3325327044132145 0.09935680638341679 33.638581940950651 17 9 0 0.65567477072511593 47 1050 46 897 48 1248 24 878
446 0.08508484146592693 0.23633373733710661 33.013050948809827 103 82 59 0.71592233235313385 47 1051 22 607 46 1152 48 1253 24 1094
447 0.32976352521742858 0.34990652474128447 32.881028095602566 99 79 59 0.51427238673199205 47 719 22 608 46 900 48 866 24 590
448 1.6181988137752259 2.7148389770365919 32.840428954169717 94 63 35 0.5687683047239328 47 780 22 629 46 941 48 1316 23 667
449 -11.063906898664703 2.8391032563133196 29.760702134054764 114 86 64 1.0277171747887539 21 338 22 636 20 438 44 700 19 528 43 621
450 -7.8531894232044781 2.9413665747699294 30.908472511911775 111 81 52 1.3519552792928056 21 679 22 638 46 1194 20 832
451 -11.847154012447069 2.8533946521670197 28.89257762358006 101 72 43 0.40340041505700946 22 641 46 939 20 677 19 530 43 427
454 -3.2621572948367339 4.423523400256669 31.682318623826973 132 97 57 0.89889009131274433 21 704 24 956 45 962 46 976 20 853 44 940 23 696
455 -2.2363319646099113 4.7656677085982606 31.852306925193353 83 65 37 0.95343679947077309 21 707 46 982 46 1225 20 703
456 -2.5025073526701003 5.2860048740205903 32.384976513689431 227 229 229 1.6042890345832108 47 1163 22 664 46 1000 48 1360 24 963 45 806 23 707
458 -3.0520945400149593 5.8032926816014303 33.293162316033694 80 59 28 1.8046413273356614 47 387 22 667 48 488 24 345
459 -1.8269486299473554 8.8751949994560881 28.559017994760847 83 70 45 2.5530780427705215 47 1384 22 683
460 -1.8269486299473554 8.8751949994560881 28.559017994760847 83 70 45 2.5530780427705215 47 1385 22 684
463 1.2743658722162685 -2.4290741663574207 32.55652515455332 12 5 0 1.6853727422130522 47 1240 22 721 46 1079 48 1469 24 1048
464 -2.4394456552619319 -2.4350869010226077 32.938380421543862 62 40 18 0.92595483343276719 47 1238 22 722 46 1306 48 1467
465 -1.6794305749434395 -2.1938196928420224 32.721659143897895 113 97 74 0.75565135676102457 47 1246 22 725 48 1473 24 1050
466 0.34834374921372435 -2.0419038901730002 32.728765959527209 63 44 21 0.86629401650460669 47 1248 22 726 46 1085 48 1676
467 0.35433228190995181 -2.0530593109387203 32.738979626492558 63 44 21 0.78462846599621983 47 1249 22 727 46 1086
468 1.0836765256564296 -1.7581532796822628 32.400558815753804 30 18 3 1.2413679150347383 47 1252 22 730 46 1095 48 1485
469 1.327733574464447 -1.5087579659065615 32.695868757728988 91 71 49 1.2732666151635297 47 1258 22 732 46 1108
470 -2.8036773157184554 -1.4906206155533366 32.833214747441858 118 101 81 0.61771530970408894 47 1256 22 733 48 1488
471 0.15921110949429951 -1.3808139426692592 32.762775564772028 105 83 59 0.84369963438663476 47 1262 22 734 46 1112
472 -2.3242322897324481 -1.2894930726974327 32.872221690825121 131 119 108 0.74755261721605282 47 1263 22 735 46 1111 24 1238 48 1690
473 -0.48521425546073432 -1.30991942498928 32.877554422068229 89 69 48 0.90218689473163172 47 1265 22 736 46 857 48 1489 24 849
474 -1.8513826295588074 -1.1648292071435626 32.900278726448938 106 88 65 0.30475079867595711 47 1267 22 737 46 1116 48 1495
475 -1.3722214563374022 -1.0070005851681383 32.864083769164303 96 76 55 0.2346065313394726 47 1271 22 740 46 1326 48 1501 24 1073
476 1.7714531025899811 -0.94593047009010911 32.40511768702833 20 11 0 1.1396400177172239 47 1274 22 741 46 864 47 1014 48 1502
477 3.6126612617347007 -0.73010807505845843 33.515592356117082 14 7 0 0.66458811434601794 47 1281 46 1127 48 1505 24 1075
478 0.31035159455461925 -0.6758587527255705 32.665256997596202 0 3 0 0.64129534423142842 47 1436 22 745 46 1328 48 1696 24 1078
479 4.2613008746320604 -0.54292469602177762 30.243811390115606 10 3 0 0.84655928602690178 47 1283 22 746 48 1508
480 4.0014947757311532 -0.30439474432108832 33.655463011779766 8 9 0 0.60475709614859352 47 1289 46 1336 48 1515 24 1082
481 0.14860676981659005 -0.079175706682279842 32.864241662788132 109 95 74 0.53643834344526387 47 1293 22 750 46 1139 48 1518 24 1088
482 -3.9175593866350673 0.25629275973756932 32.975611390797269 107 84 59 0.55743768682216854 47 1296 22 751 46 1145 48 1530 24 1098 20 916 44 1020
483 5.0633588736411372 0.5332727821695854 29.850477150446025 3 5 0 0.93089962214868116 47 1301 22 754 48 1545
484 4.9161699467811886 0.54730807332212961 30.340304010404079 0 2 0 0.29286550046305537 47 1064 22 757
485 3.2307221720769146 1.1024345164277538 32.112286796290107 22 12 0 0.98661061492740476 47 1309 22 766 46 1170 48 1558
486 -10.877846483889547 2.0014996249252697 30.339667673309457 126 70 26 0.93844473959350716 21 663 46 1180 48 1576 45 1047 20 816 44 889 19 789 43 761
488 -12.004705231981321 2.599141339341049 29.757146820471569 112 81 53 1.0284844318125865 21 669 46 1183 45 746 19 667 43 775
490 -11.771836503192635 3.0708653106893213 29.054900262455991 83 48 17 0.37120235555220432 22 791 46 1201 45 922 20 834 44 907 43 941
491 -11.584560818406281 3.311992912590775 29.359964298226391 119 87 55 0.8602823313209863 21 690 22 793 46 1206 45 930 20 838 44 915
492 -11.791632259539181 3.430654539576568 28.932837904086952 86 50 22 0.4861967175935622 22 796 46 1209 45 932 20 840 44 918 43 794
493 -2.5273797866179963 4.1169000558322866 32.05247378416604 95 73 47 1.2736769286281575 21 892 22 799 48 1747 24 1284 23 933
494 -11.595800883397438 4.0173982432672988 29.03619426080439 119 91 63 1.242764801214524 21 698 22 800 46 1217 45 947 44 928 43 802 19 687
496 3.4850849171641367 5.2489198335200751 32.847031164311659 6 10 0 1.6707166501868815 47 1495 22 811 46 1564
497 -2.8959897114491309 5.3330650257656647 32.192983894278996 95 69 38 1.9000816895495223 47 1358 22 813 45 974 20 711
498 3.4792845952745837 7.8342481468486591 32.072105798708122 190 133 15 2.9353905714871154 21 725 22 826
500 4.0384934227528833 9.4204564951775591 28.651089489337267 15 12 0 1.3344812881349577 47 1387 22 836
506 -3.5847327656505628 16.494019630959343 22.058225744009398 42 41 28 1.8789557632310707 21 456 22 857
507 -4.9200375018242841 16.792349927021753 20.374254883336956 64 58 42 1.6440681626793308 21 459 22 859
508 -4.9200375018242841 16.792349927021753 20.374254883336956 64 58 42 1.6440681626793308 21 460 22 860
509 1.7382217279658434 -2.4974444179584192 32.519833615332956 26 22 4 2.0624949521631448 47 1419 22 862 46 1304 24 1222
510 -1.9337930359808699 -2.0462465349083403 32.748928868099881 76 56 34 0.63011885538209667 47 1422 22 864 46 1312 48 1675 24 1230
511 -1.9396315986675878 -2.0561043549661941 32.794583543210436 76 56 34 0.78734081913982434 47 1421 22 865 46 1311
512 -2.2219849491902774 -1.910682446060159 32.57021938726389 126 105 81 0.84192042809160006 47 1423 22 866 46 1435 48 1678
513 0.43660044873145387 -1.7227496139443497 32.761912464450631 105 81 57 1.2925409475939684 47 1428 22 867 46 1317 48 1680 24 1062
514 -0.94295586767122919 -1.5489277504444603 32.746280720577154 94 74 48 0.5847118820649948 47 1430 22 868 46 1319 48 1487 24 1233
515 -1.5677066399452251 -1.2965646331767793 32.535278701283694 1 4 0 0.70928474039083311 47 1431 22 869 46 1442 48 1687 24 1235
516 -0.35931593009194868 -0.66613218061198076 32.760076934184781 75 59 42 0.8762666397561677 47 1435 22 870 46 1330 48 1697 24 1077
517 0.26232858699609685 -0.43246741529932492 32.761485217896762 107 93 74 0.54206573051311302 47 1441 22 873 46 1446 48 1701 24 1081
518 4.2212888173752798 0.022343121234166353 34.399022326539409 101 72 44 0.40444021432542449 47 1445 46 1339 48 1706
519 4.2212888173752798 0.022343121234166353 34.399022326539409 101 72 44 0.40444021432542449 47 1446 46 1340 48 1707
520 2.4876883627230852 0.35607205493679822 32.927386831884895 24 20 5 1.9849957150262041 47 1566 22 879 46 1344 48 1710
521 2.8693243335507552 0.67658554774392687 32.262896141394592 11 13 1 1.4119305662252442 47 1304 22 880 46 1351 24 1104
522 4.6728088841638007 1.2393117089167944 30.739511651674146 4 6 0 0.68627451666515027 47 1311 22 885
523 -11.213298949998661 4.1001447219844884 29.126098429010852 113 84 53 0.99857127532799395 21 815 22 902 46 1469 45 1139 20 960
524 -11.845730108674344 4.1641275107083517 28.786730166141897 92 56 21 1.6609781966994057 22 903 46 1472 20 964 21 816
526 4.3800919320262901 12.038413864883735 25.693377993158528 49 45 34 0.88864083893899481 47 1606 22 927
527 -3.7559640761808768 12.390483515996715 26.056614893211758 76 76 69 2.5957655982252263 21 851 22 930
528 -3.7559640761808768 12.390483515996715 26.056614893211758 76 76 69 2.5957655982252263 21 850 22 931
529 4.1737014125427114 12.705731998931869 25.506355631870651 73 61 38 2.2637882141515613 47 1524 22 932
530 -3.7772256332598007 12.609596819366223 25.794065196519551 0 2 0 1.947209165192374 21 747 22 934
531 -8.7266215420495534 15.562213930976604 26.128851947495583 0 0 0 0.53018699027888805 21 751 47 1614
533 -2.9022603562539215 16.791457364195036 22.29302086143927 78 67 47 1.1804492901006474 21 759 22 947
534 -3.4812621853934966 17.180596675574368 21.302163229140735 90 72 43 1.0396550253535883 21 760 22 949
535 1.983079430225815 -2.0387990866093766 35.019791206438768 13 8 1 0.30498199263223946 47 1553 46 1316 48 1810
536 0.61525681044311797 -0.22589411963136069 32.330552052587294 113 101 83 0.14693843615723445 47 1563 22 953 48 1824
537 -3.0476108045607289 -0.085133285882314072 33.167510090315474 114 98 81 0.82096118822966879 47 1564 22 954 46 1450 48 1826 24 1339 20 1074 44 1168
538 -1.145590851255506 0.42428481898831283 32.948433892757301 102 83 63 0.28091386563104992 47 1567 22 955 48 1830 24 1341
539 3.3031287625276602 0.61300833568471957 32.23059573819458 102 70 39 1.6662625733348946 47 1568 22 957 46 1535 48 1831 24 1342
540 3.3031287625276602 0.61300833568471957 32.23059573819458 102 70 39 1.6662625733348946 47 1569 22 958 46 1534 48 1832 24 1343
541 0.35420574032354879 4.0260709052678667 32.947120142704762 103 71 37 0.58617046231839731 21 891 47 1583 22 968 46 1468 48 1849 24 1355 45 1140 23 1001
542 -0.09986237854904001 4.5799096761697831 33.480641356000589 103 75 47 0.78111093516698893 47 1584 22 970 48 1850 24 1356 23 1002
548 0.90858022356108947 -2.1244804401378272 31.952552835898395 85 73 53 1.488047525304627 47 1552 22 999 48 1808 24 1321
549 -2.4577028303624626 -1.6239275933708663 32.445887061139928 16 17 3 0.87015281034278935 47 1556 22 1002 46 1522 48 1816 24 1331
550 -2.4577028303624626 -1.6239275933708663 32.445887061139928 16 17 3 0.87015281034278935 47 1557 22 1003 46 1523 48 1815 24 1330
551 1.9072818623429155 -1.1037106444336673 32.688663620925631 14 12 0 1.9288329892714533 47 1634 22 1005 46 1529 48 1821 24 1403
552 -1.6351029868238753 2.1125525291996246 33.067278021106198 11 11 3 0.51973760084951393 47 1651 22 1017 46 1547 48 1933 24 1421 23 1049
553 -1.6351029868238753 2.1125525291996246 33.067278021106198 11 11 3 0.51973760084951393 47 1652 22 1018 46 1548 48 1934 24 1422 23 1050
554 -10.303841692022495 2.3601619396048634 30.354612917328442 71 48 27 1.3058538524570227 21 945 22 1023 46 1550 48 1937 45 1207
555 -5.1815260531838989 5.7120417930421121 30.302100734162185 65 53 37 0.060866587858895344 21 965 22 1038
557 -0.54889365288881764 8.1466992703519665 29.871325798456954 0 2 0 0.97156399488006118 47 1728 22 1042
558 1.5733491645324116 10.814861902113149 27.072173483825861 0 4 0 2.1190355123762581 47 1687 22 1044
559 1.5733491645324116 10.814861902113149 27.072173483825861 0 4 0 2.1190355123762581 47 1688 22 1045
564 -3.6727711315230827 16.301472291098822 22.181672218726714 89 75 54 1.8405436521207172 21 931 22 1057
565 -4.628043802144866 16.04893262078328 21.637633774726197 92 69 41 2.0540285678412094 21 930 22 1058
566 -1.7440003985132497 -0.84528739519209872 33.007395014285706 118 97 74 1.4380457033592995 47 1711 22 1063 46 1600 48 2025 22 1092 24 1498
567 1.0860824829781848 -0.56182171128101766 32.819443909633463 10 10 0 1.319656915278052 47 1712 22 1064 46 1601 48 1983 24 1406
568 -6.498908262691252 5.6513062211354308 29.913981642326647 178 183 184 1.3816969511480077 21 1001 22 1077
569 -6.498908262691252 5.6513062211354308 29.913981642326647 178 183 184 1.3816969511480077 21 1002 22 1078
570 -0.91454827203045985 -1.2079216527184593 33.198341348445616 0 2 0 0.76584018354036809 47 1742 22 1090 46 1637 48 1979 24 1464
571 -0.91454827203045985 -1.2079216527184593 33.198341348445616 0 2 0 0.76584018354036809 47 1743 22 1091 46 1638 48 1980 24 1465
572 1.8901087112030894 -0.41016295002469449 32.564083915765565 11 8 0 1.2178208324168267 47 1745 22 1093 46 1641 48 2026
573 0.37925452174611329 -0.15850521457084588 32.855987052293941 85 71 50 0.50049745052457106 47 1746 22 1094 46 1642 48 2027 24 1500
574 1.944409518286109 0.34468677895511213 32.915159905447929 117 107 87 1.5493860654045779 47 1747 22 1096 46 1643 48 2028 24 1501
575 -11.416413734252687 2.8196688044413443 29.649578818744462 128 104 78 0.92099501279104057 21 1025 22 1099 46 1645 45 1275 20 1160 44 1258 19 1008 43 1178
576 -11.405599467128111 2.8120669962830522 29.677633228871311 128 104 78 1.3272024978856041 21 1026 45 1276 20 1161 22 1100
577 -6.2139569408295712 5.122866744569853 31.168765339516405 26 17 2 2.3164173634201473 47 1773 22 1103 46 1669 48 2032 45 1300 20 1185
578 3.3866385622251798 7.4485186737267801 29.982883900064579 190 135 14 1.2814482155430797 47 1759 22 1105
581 -2.6699287066867607 16.82153842279995 22.366947335115661 67 58 41 1.451474847792009 21 981 22 1123
582 -3.1771651135709713 16.906624806082124 21.907111311747936 40 39 29 1.0377912321693814 21 1020 22 1124
583 -8.4277346905592623 2.0462353186376148 30.985664159509753 19 14 1 1.7591503843881071 21 1069 22 1146 46 1691 48 2059 45 1328 20 1209 44 1316 23 1161
586 -0.55564309900763142 16.255353366674115 24.658787141210347 61 57 39 1.7178478795128611 21 1072 22 1163
587 -9.0758790389003288 14.472994027455664 26.588036101708884 0 0 0 2.3331329005719708 21 1090 47 1818
588 0.33896978474194739 6.8445800872821252 28.671012135235173 138 95 54 0.77770263584040533 47 1817 22 1177
589 -6.5494146562653572 11.125583312599108 29.122095388771196 0 0 0 0.76523210347941428 21 1093 47 1820
592 0.40026582829773649 0.90468929342871873 33.529906502126536 119 94 71 1.2384753945576708 22 416 46 215 48 319 48 1275 24 608 45 463
594 -12.144459604943199 3.6878477610938747 28.606123501911735 75 45 18 0.76642266168348372 22 646 46 964 45 773 20 683 19 545
595 -12.175440111193438 3.6991084106069727 28.720805806557021 75 45 18 0.91118739301915941 22 647 46 965 45 772 20 684 44 717 19 546
596 -12.40932775496565 2.8052174594377552 28.705906327378603 117 89 61 0.77608071865038286 22 786 46 1187 45 914 20 828 44 900 19 672 43 782
597 -1.5249343014026064 5.8302913861071186 33.734485474926359 87 65 37 1.3984188284733514 47 1364 22 816 48 1598 24 1155
599 2.0549443207622562 12.557037632954311 30.213434651718167 0 0 0 0.57021198275722673 21 912 47 1689
600 2.2229640045884564 15.914176915449916 29.157217231911282 0 0 0 0.68763907763993037 21 921 47 1695
601 3.0655315239191405 14.753868076763883 29.73896821682969 0 0 0 0.17359562071071 21 973 47 1734
602 3.8195048178084763 17.922038131803088 29.025622378686837 0 0 0 0.22126212658719688 21 926 47 1736
603 2.5755434379931743 14.07157753982586 29.897990988915343 0 0 0 1.2768164589694562 21 1010 47 1779
604 4.2447569434473715 15.015853561799041 30.285980559064928 0 0 0 1.6737664002487274 21 1042 47 1793
605 2.1265952196314593 15.266227452440406 29.529380350207887 0 0 0 1.3543782310553061 21 1060 47 1795
606 -3.7169830412417744 -0.78311626609434015 33.016077555479868 118 101 86 1.5959769420366137 22 36 46 121 20 17
607 4.5987391322631161 -0.86610729763760652 34.427487057505793 96 81 59 0.53255474374027578 47 675 46 133 48 823
608 -3.1330208667098929 -0.27128165875104948 33.224277623942321 121 113 100 1.2634780322170682 22 47 46 157 48 252 20 372
609 -1.7106579151514225 -0.043019346235011705 32.64247450763424 11 3 0 0.73075196454307034 22 405 46 174 48 264
610 -0.98164864652967798 0.54849116043294321 33.301005825378525 101 81 62 1.8617604607446798 21 2 22 69 46 206 45 33
